ncols	128
nrows               148
xllcorner    782500
yllcorner    171700
cellsize       100.0000
NODATA_value -9999
1619	1603	1590	1578	1571	1565	1558	1552	1550	1549	1551	1551	1557	1579	1618	1661	1712	1764	1802	1827	1847	1856	1864	1875	1889	1903	1910	1913	1914	1913	1910	1897	1882	1878	1886	1895	1921	1949	1970	1981	1991	2002	2008	1997	1976	1949	1899	1845	1814	1804	1798	1808	1826	1852	1884	1925	1980	2039	2088	2124	2156	2183	2208	2228	2242	2257	2276	2295	2316	2337	2358	2394	2433	2454	2453	2454	2457	2462	2466	2481	2500	2511	2523	2551	2585	2623	2699	2775	2795	2758	2719	2695	2669	2643	2616	2586	2577	2572	2556	2527	2509	2521	2533	2523	2493	2458	2432	2405	2361	2306	2247	2177	2111	2065	2043	2036	2052	2081	2119	2159	2196	2228	2253	2267	2269	2269	2265	2260
1594	1584	1578	1571	1566	1561	1556	1552	1550	1550	1551	1551	1557	1577	1614	1655	1700	1743	1778	1801	1819	1827	1834	1852	1883	1912	1939	1968	1980	1977	1975	1966	1953	1949	1953	1960	1987	2018	2040	2048	2055	2070	2081	2069	2039	2004	1958	1910	1867	1828	1800	1802	1816	1835	1863	1900	1952	2008	2057	2094	2126	2154	2177	2198	2219	2239	2259	2279	2300	2320	2340	2366	2390	2409	2419	2426	2434	2444	2452	2466	2485	2498	2514	2548	2596	2642	2704	2758	2777	2766	2749	2724	2695	2673	2653	2627	2620	2616	2606	2588	2576	2603	2637	2626	2569	2514	2476	2434	2381	2323	2263	2194	2130	2084	2059	2052	2077	2117	2163	2210	2254	2297	2337	2355	2350	2345	2341	2332
1573	1568	1566	1563	1559	1556	1552	1549	1548	1549	1551	1550	1554	1571	1603	1640	1679	1717	1747	1769	1785	1794	1803	1828	1868	1908	1948	1989	2015	2023	2031	2028	2021	2020	2023	2031	2055	2084	2103	2112	2119	2132	2141	2131	2101	2063	2017	1968	1916	1863	1823	1813	1815	1823	1842	1871	1919	1973	2023	2061	2097	2125	2148	2170	2193	2214	2236	2258	2279	2298	2319	2341	2360	2377	2390	2399	2410	2424	2439	2455	2475	2498	2521	2555	2604	2655	2704	2745	2761	2759	2748	2739	2726	2717	2701	2681	2671	2664	2657	2646	2635	2657	2687	2671	2612	2558	2508	2454	2394	2334	2272	2207	2147	2105	2081	2076	2107	2154	2207	2261	2313	2361	2404	2425	2425	2423	2417	2409
1560	1557	1556	1554	1550	1548	1546	1544	1545	1547	1550	1549	1551	1565	1590	1620	1652	1684	1711	1734	1753	1761	1771	1800	1846	1893	1936	1977	2014	2048	2077	2084	2087	2090	2095	2103	2119	2135	2154	2174	2187	2191	2187	2176	2153	2119	2075	2026	1969	1909	1861	1835	1821	1815	1819	1835	1881	1936	1986	2029	2069	2097	2120	2142	2163	2184	2208	2234	2257	2278	2300	2318	2333	2350	2368	2382	2395	2409	2427	2443	2464	2501	2541	2578	2626	2674	2700	2714	2725	2729	2724	2746	2771	2779	2762	2743	2725	2706	2698	2695	2689	2687	2680	2659	2627	2590	2529	2460	2394	2335	2275	2217	2167	2130	2105	2102	2138	2190	2248	2309	2367	2411	2445	2470	2490	2503	2500	2496
1550	1548	1549	1548	1544	1542	1541	1541	1542	1546	1549	1547	1548	1558	1577	1601	1626	1650	1675	1698	1718	1725	1734	1764	1815	1870	1914	1955	2001	2055	2100	2119	2132	2142	2149	2159	2170	2180	2198	2225	2244	2242	2231	2219	2202	2171	2131	2084	2024	1957	1899	1860	1832	1816	1807	1810	1850	1902	1951	1996	2038	2066	2089	2111	2131	2151	2178	2206	2231	2255	2279	2293	2306	2324	2347	2367	2384	2400	2420	2437	2459	2505	2556	2598	2644	2687	2689	2681	2687	2699	2706	2754	2808	2827	2814	2800	2780	2754	2742	2742	2742	2717	2684	2657	2641	2611	2543	2465	2398	2340	2278	2226	2184	2150	2126	2124	2163	2219	2281	2346	2409	2448	2475	2504	2538	2559	2570	2573
1543	1541	1542	1542	1540	1539	1540	1540	1541	1543	1545	1543	1543	1550	1564	1581	1601	1622	1643	1662	1678	1689	1705	1736	1784	1837	1881	1923	1970	2024	2072	2105	2132	2154	2170	2188	2205	2222	2240	2263	2281	2282	2273	2265	2251	2222	2179	2127	2064	1995	1935	1892	1858	1834	1813	1804	1830	1869	1909	1955	1999	2028	2053	2077	2096	2117	2144	2173	2198	2223	2247	2264	2280	2300	2323	2344	2368	2393	2423	2454	2486	2528	2571	2603	2629	2654	2660	2662	2672	2681	2693	2747	2805	2837	2850	2861	2848	2831	2828	2839	2840	2796	2740	2698	2675	2643	2576	2496	2423	2351	2274	2224	2185	2156	2138	2142	2179	2234	2293	2355	2415	2451	2477	2497	2521	2543	2571	2595
1539	1538	1539	1540	1541	1542	1544	1545	1546	1546	1546	1545	1545	1549	1557	1567	1583	1600	1616	1628	1640	1655	1677	1709	1752	1801	1842	1882	1928	1978	2027	2071	2113	2145	2173	2200	2225	2249	2271	2291	2307	2313	2309	2306	2298	2274	2227	2169	2104	2036	1976	1932	1895	1864	1834	1813	1823	1842	1873	1918	1963	1991	2016	2040	2060	2080	2107	2136	2162	2188	2214	2235	2254	2277	2299	2322	2354	2388	2425	2472	2515	2549	2582	2602	2603	2608	2626	2646	2660	2664	2676	2732	2789	2831	2873	2906	2902	2891	2898	2927	2937	2869	2784	2731	2707	2676	2612	2531	2453	2366	2277	2225	2188	2162	2151	2160	2194	2244	2302	2360	2417	2451	2473	2488	2497	2512	2560	2605
1535	1536	1539	1544	1549	1554	1558	1561	1563	1563	1561	1560	1559	1560	1562	1567	1577	1588	1598	1606	1614	1628	1648	1676	1716	1762	1800	1839	1885	1934	1984	2035	2083	2123	2158	2191	2221	2251	2279	2301	2321	2335	2341	2347	2345	2327	2278	2217	2152	2087	2029	1988	1953	1916	1877	1848	1839	1842	1858	1892	1923	1950	1976	1998	2017	2037	2064	2093	2121	2148	2175	2204	2232	2261	2287	2314	2349	2385	2424	2472	2516	2543	2568	2584	2579	2576	2601	2628	2643	2651	2672	2722	2776	2821	2866	2898	2905	2904	2913	2940	2947	2873	2784	2735	2714	2686	2639	2574	2499	2407	2317	2256	2213	2182	2171	2180	2212	2259	2316	2375	2431	2464	2488	2510	2519	2533	2595	2650
1530	1535	1543	1554	1566	1577	1585	1592	1595	1594	1590	1590	1589	1586	1583	1582	1585	1588	1593	1597	1603	1607	1616	1639	1681	1727	1762	1799	1845	1893	1943	1996	2046	2089	2128	2164	2200	2235	2266	2292	2316	2346	2374	2391	2393	2379	2329	2267	2202	2144	2091	2059	2031	1993	1948	1910	1884	1865	1862	1870	1881	1907	1936	1958	1973	1992	2018	2047	2075	2100	2128	2172	2220	2258	2286	2315	2350	2386	2420	2456	2490	2513	2531	2545	2547	2552	2579	2609	2631	2656	2687	2724	2761	2796	2818	2834	2858	2875	2881	2881	2867	2808	2743	2702	2680	2654	2648	2639	2579	2476	2381	2307	2249	2211	2196	2202	2232	2277	2333	2400	2461	2502	2537	2566	2576	2590	2665	2740
1530	1541	1554	1571	1592	1610	1623	1634	1640	1638	1634	1634	1632	1625	1617	1611	1606	1602	1599	1599	1599	1595	1593	1611	1652	1694	1726	1761	1804	1851	1901	1954	2006	2053	2093	2131	2171	2211	2246	2275	2304	2350	2396	2424	2431	2423	2375	2314	2254	2201	2153	2128	2108	2072	2022	1977	1934	1897	1876	1863	1857	1878	1906	1923	1935	1950	1976	2004	2033	2057	2086	2143	2206	2252	2282	2312	2345	2380	2412	2438	2464	2484	2497	2505	2512	2523	2553	2587	2618	2654	2687	2711	2736	2761	2766	2769	2803	2831	2835	2815	2782	2735	2684	2651	2630	2616	2643	2676	2630	2521	2422	2342	2276	2238	2223	2226	2256	2298	2356	2429	2497	2551	2596	2629	2639	2653	2727	2810
1539	1558	1580	1605	1632	1657	1675	1691	1704	1709	1711	1706	1698	1684	1670	1656	1643	1632	1623	1617	1613	1603	1597	1604	1626	1653	1685	1724	1767	1815	1868	1921	1974	2021	2062	2099	2141	2183	2223	2257	2293	2345	2397	2433	2454	2460	2411	2346	2291	2246	2200	2177	2156	2120	2072	2027	1984	1946	1915	1887	1866	1873	1888	1898	1908	1923	1947	1976	2005	2032	2065	2120	2180	2228	2266	2302	2332	2361	2391	2420	2447	2464	2475	2484	2494	2508	2535	2565	2588	2613	2638	2668	2699	2728	2742	2755	2791	2818	2813	2774	2722	2682	2645	2616	2592	2573	2586	2597	2554	2470	2392	2319	2262	2237	2237	2252	2283	2324	2381	2451	2523	2587	2644	2692	2728	2755	2796	2830
1553	1581	1614	1647	1681	1711	1735	1756	1774	1789	1797	1788	1772	1753	1732	1711	1691	1670	1656	1646	1636	1622	1613	1608	1605	1613	1646	1690	1734	1782	1836	1890	1942	1989	2030	2067	2110	2153	2195	2234	2275	2331	2386	2429	2469	2492	2441	2370	2320	2286	2247	2223	2199	2164	2119	2076	2037	2004	1967	1923	1889	1882	1882	1884	1892	1905	1927	1954	1983	2013	2048	2098	2150	2200	2246	2287	2313	2335	2365	2401	2431	2444	2452	2461	2477	2495	2516	2537	2554	2564	2579	2617	2660	2694	2722	2748	2788	2815	2803	2740	2668	2637	2616	2590	2557	2532	2519	2497	2456	2403	2347	2286	2241	2231	2252	2284	2315	2356	2411	2475	2545	2619	2686	2745	2812	2858	2855	2828
1580	1616	1656	1695	1733	1770	1797	1821	1842	1863	1876	1865	1846	1823	1798	1771	1744	1718	1698	1682	1666	1643	1625	1609	1595	1592	1618	1657	1696	1743	1798	1854	1909	1960	2000	2038	2080	2123	2166	2208	2252	2307	2362	2411	2460	2489	2456	2402	2364	2336	2305	2279	2251	2214	2170	2125	2090	2058	2018	1968	1929	1911	1899	1892	1892	1895	1912	1936	1961	1989	2024	2070	2121	2170	2219	2262	2290	2313	2341	2375	2402	2414	2421	2432	2448	2465	2484	2503	2516	2521	2532	2577	2625	2662	2696	2727	2779	2815	2800	2725	2640	2611	2594	2564	2528	2500	2475	2443	2404	2362	2314	2271	2241	2246	2282	2326	2358	2398	2452	2516	2586	2660	2728	2785	2849	2893	2868	2818
1616	1659	1706	1748	1789	1828	1855	1878	1903	1930	1949	1937	1913	1889	1864	1834	1803	1774	1749	1724	1700	1668	1636	1612	1595	1588	1599	1621	1653	1701	1757	1817	1879	1932	1973	2011	2050	2090	2133	2180	2229	2277	2324	2373	2419	2451	2455	2450	2431	2404	2376	2343	2302	2261	2220	2176	2142	2111	2072	2026	1987	1959	1935	1917	1902	1892	1903	1921	1941	1965	1995	2039	2088	2137	2186	2231	2264	2291	2319	2345	2366	2376	2384	2394	2407	2422	2445	2470	2483	2482	2492	2541	2594	2635	2665	2695	2766	2827	2815	2727	2636	2600	2576	2547	2519	2494	2463	2427	2388	2345	2302	2277	2266	2284	2333	2387	2415	2445	2499	2572	2647	2710	2766	2812	2848	2865	2835	2781
1653	1702	1753	1799	1840	1879	1906	1930	1959	1993	2016	2005	1979	1954	1929	1899	1865	1833	1803	1772	1742	1703	1662	1628	1605	1591	1588	1595	1621	1666	1718	1781	1846	1901	1941	1980	2017	2053	2096	2147	2197	2238	2279	2329	2375	2410	2448	2480	2480	2459	2439	2402	2354	2309	2271	2229	2196	2166	2128	2085	2046	2010	1977	1949	1923	1902	1903	1913	1927	1946	1972	2011	2056	2104	2153	2199	2234	2265	2292	2313	2330	2339	2346	2356	2368	2383	2413	2444	2456	2453	2460	2515	2574	2621	2649	2678	2764	2841	2828	2731	2635	2595	2567	2544	2523	2497	2457	2417	2379	2338	2306	2294	2296	2323	2382	2444	2468	2490	2539	2616	2690	2743	2787	2825	2841	2836	2799	2739
1694	1741	1788	1831	1873	1912	1942	1969	2003	2040	2068	2067	2051	2028	1998	1961	1924	1888	1857	1830	1801	1758	1713	1674	1645	1623	1605	1596	1606	1637	1676	1738	1805	1860	1901	1942	1978	2014	2055	2103	2150	2189	2228	2278	2331	2376	2422	2462	2478	2480	2480	2456	2421	2379	2330	2277	2242	2209	2171	2131	2093	2061	2031	2000	1962	1930	1920	1921	1926	1938	1958	1991	2030	2073	2119	2163	2202	2238	2264	2281	2294	2305	2316	2327	2340	2358	2388	2418	2436	2444	2462	2524	2592	2642	2669	2691	2770	2838	2824	2736	2648	2607	2577	2550	2523	2490	2449	2408	2372	2340	2319	2315	2325	2353	2405	2460	2485	2510	2554	2619	2684	2738	2784	2818	2831	2823	2776	2709
1737	1779	1814	1855	1898	1937	1969	2001	2038	2079	2111	2122	2121	2101	2064	2022	1982	1942	1912	1892	1867	1821	1773	1729	1695	1666	1633	1606	1600	1613	1639	1696	1764	1818	1859	1901	1937	1972	2013	2058	2102	2140	2177	2227	2286	2340	2388	2430	2461	2488	2507	2501	2484	2446	2385	2322	2285	2250	2211	2173	2137	2113	2091	2056	2008	1964	1945	1935	1933	1938	1952	1976	2006	2043	2085	2127	2170	2212	2239	2249	2259	2274	2291	2306	2322	2344	2374	2402	2426	2448	2477	2548	2625	2677	2697	2713	2778	2832	2816	2738	2658	2619	2589	2560	2524	2484	2442	2401	2368	2345	2334	2338	2354	2383	2422	2466	2494	2521	2561	2610	2662	2720	2771	2803	2817	2809	2754	2679
1769	1809	1842	1879	1918	1954	1988	2023	2065	2109	2146	2166	2173	2160	2124	2085	2045	2004	1973	1955	1930	1881	1829	1784	1747	1712	1667	1627	1605	1603	1615	1662	1722	1772	1815	1857	1896	1933	1976	2021	2067	2104	2140	2187	2245	2303	2355	2401	2443	2484	2509	2519	2517	2489	2430	2371	2331	2293	2253	2217	2180	2159	2140	2104	2051	2005	1978	1960	1947	1945	1949	1965	1988	2020	2056	2092	2135	2177	2206	2219	2232	2252	2273	2294	2317	2345	2381	2415	2446	2474	2508	2583	2663	2710	2723	2736	2783	2821	2802	2731	2651	2616	2590	2563	2525	2487	2441	2398	2366	2351	2346	2356	2377	2406	2441	2479	2505	2532	2567	2608	2653	2710	2757	2780	2785	2768	2715	2645
1791	1834	1873	1906	1932	1960	1998	2038	2082	2130	2170	2198	2215	2209	2180	2147	2108	2067	2035	2018	1993	1939	1881	1834	1796	1760	1708	1659	1625	1606	1604	1633	1674	1719	1768	1815	1858	1903	1949	1995	2042	2081	2119	2164	2217	2271	2324	2372	2417	2458	2488	2516	2535	2520	2468	2417	2376	2334	2293	2257	2219	2200	2182	2147	2097	2052	2017	1988	1967	1956	1952	1961	1978	2002	2028	2056	2095	2137	2169	2190	2213	2236	2262	2290	2323	2359	2406	2453	2488	2514	2545	2622	2704	2746	2753	2761	2780	2785	2760	2701	2631	2604	2587	2563	2529	2494	2442	2391	2362	2356	2358	2374	2400	2429	2458	2492	2521	2552	2585	2616	2652	2703	2744	2756	2739	2704	2665	2616
1810	1856	1897	1927	1944	1966	2007	2050	2096	2145	2189	2225	2250	2253	2232	2202	2166	2125	2094	2078	2054	1996	1932	1883	1846	1808	1751	1695	1649	1617	1602	1614	1639	1678	1728	1778	1825	1874	1923	1972	2019	2059	2098	2144	2193	2244	2293	2340	2384	2426	2463	2507	2543	2538	2496	2451	2415	2375	2337	2301	2263	2244	2227	2193	2145	2099	2059	2021	1993	1976	1963	1963	1972	1986	2002	2024	2060	2100	2133	2161	2190	2221	2253	2291	2331	2374	2429	2486	2525	2547	2578	2651	2731	2768	2770	2769	2766	2747	2719	2672	2616	2595	2583	2559	2528	2497	2442	2388	2361	2362	2372	2392	2422	2449	2473	2501	2535	2571	2601	2625	2652	2697	2733	2737	2702	2652	2622	2588
1824	1867	1906	1939	1960	1987	2027	2071	2115	2160	2201	2239	2269	2282	2277	2261	2230	2192	2155	2125	2089	2034	1975	1927	1891	1852	1795	1737	1688	1647	1621	1622	1636	1664	1704	1748	1794	1842	1892	1943	1993	2035	2078	2126	2176	2226	2273	2316	2357	2393	2427	2473	2513	2523	2512	2496	2474	2445	2411	2369	2321	2293	2267	2232	2191	2151	2114	2078	2042	2006	1976	1966	1966	1971	1980	1996	2022	2054	2086	2124	2165	2202	2240	2285	2334	2382	2436	2488	2527	2549	2574	2631	2690	2721	2727	2731	2736	2731	2713	2669	2616	2587	2564	2535	2511	2489	2444	2401	2380	2381	2390	2406	2427	2450	2473	2499	2535	2574	2608	2637	2668	2711	2743	2737	2689	2627	2593	2556
1834	1874	1911	1945	1974	2005	2047	2091	2132	2171	2209	2247	2281	2304	2317	2315	2291	2257	2216	2168	2118	2067	2016	1970	1935	1897	1840	1784	1730	1683	1648	1638	1642	1659	1687	1722	1765	1812	1861	1913	1965	2010	2057	2107	2159	2210	2253	2293	2329	2357	2386	2431	2470	2495	2520	2536	2529	2512	2484	2437	2382	2343	2304	2268	2236	2204	2172	2141	2099	2041	1994	1976	1968	1965	1967	1977	1992	2011	2042	2092	2143	2185	2226	2277	2335	2391	2440	2484	2520	2544	2565	2602	2635	2659	2674	2683	2703	2721	2713	2672	2623	2585	2546	2513	2496	2481	2448	2420	2405	2406	2414	2423	2432	2450	2473	2498	2535	2576	2614	2651	2688	2731	2762	2750	2686	2613	2573	2532
1831	1870	1906	1942	1977	2013	2057	2102	2143	2179	2215	2254	2291	2324	2349	2360	2341	2309	2267	2215	2160	2111	2062	2016	1980	1940	1884	1827	1770	1718	1676	1654	1646	1652	1671	1700	1738	1782	1829	1881	1932	1980	2028	2078	2131	2183	2226	2264	2299	2325	2354	2396	2434	2468	2508	2536	2552	2555	2538	2491	2438	2390	2343	2306	2278	2250	2221	2191	2145	2082	2029	2004	1988	1977	1973	1976	1983	1995	2021	2069	2119	2167	2216	2274	2334	2393	2445	2490	2525	2548	2568	2588	2606	2624	2639	2649	2675	2702	2707	2681	2651	2602	2549	2511	2495	2480	2458	2439	2431	2434	2446	2454	2461	2474	2493	2514	2549	2589	2629	2669	2707	2751	2781	2765	2698	2624	2579	2533
1814	1853	1891	1930	1976	2019	2065	2110	2150	2185	2220	2258	2297	2337	2375	2398	2383	2351	2311	2263	2212	2163	2114	2067	2025	1981	1924	1865	1806	1752	1706	1671	1648	1644	1656	1677	1711	1752	1798	1846	1895	1943	1991	2042	2097	2151	2193	2232	2269	2302	2336	2370	2401	2434	2467	2495	2543	2583	2581	2538	2486	2431	2378	2339	2312	2287	2259	2226	2182	2130	2082	2048	2024	2007	1999	1998	1999	2004	2022	2053	2090	2150	2217	2279	2332	2386	2448	2507	2547	2571	2590	2596	2597	2606	2618	2628	2652	2675	2694	2711	2709	2642	2562	2515	2498	2484	2471	2464	2462	2469	2482	2495	2509	2520	2528	2542	2571	2606	2645	2685	2721	2766	2801	2787	2723	2654	2602	2548
1808	1846	1885	1927	1978	2029	2074	2118	2156	2188	2221	2260	2300	2345	2393	2428	2419	2391	2353	2310	2259	2211	2164	2117	2069	2020	1962	1902	1842	1787	1737	1692	1656	1641	1646	1660	1690	1728	1770	1814	1862	1909	1957	2008	2065	2119	2163	2202	2241	2281	2317	2343	2368	2400	2430	2461	2532	2599	2609	2570	2521	2463	2405	2365	2341	2321	2296	2264	2222	2178	2135	2096	2065	2046	2035	2027	2021	2019	2029	2047	2074	2139	2217	2281	2328	2379	2449	2517	2561	2587	2607	2601	2589	2587	2597	2610	2636	2659	2691	2737	2755	2675	2578	2524	2506	2493	2486	2487	2491	2499	2513	2528	2548	2556	2556	2563	2587	2616	2650	2688	2725	2771	2809	2798	2739	2672	2619	2561
1854	1889	1924	1962	2008	2053	2090	2125	2158	2187	2218	2256	2297	2346	2406	2452	2451	2428	2397	2353	2300	2253	2206	2157	2106	2054	1997	1938	1878	1818	1763	1715	1676	1655	1652	1660	1683	1716	1755	1798	1845	1890	1935	1985	2038	2089	2135	2178	2221	2263	2303	2331	2357	2389	2418	2449	2517	2580	2596	2567	2527	2471	2417	2383	2371	2363	2343	2315	2274	2222	2174	2136	2105	2083	2068	2055	2052	2053	2056	2059	2074	2133	2205	2268	2320	2373	2434	2492	2532	2562	2583	2581	2574	2572	2577	2592	2620	2647	2685	2737	2758	2687	2598	2547	2522	2503	2493	2490	2492	2501	2514	2526	2539	2545	2545	2550	2569	2594	2623	2659	2692	2725	2748	2743	2710	2666	2618	2564
1911	1942	1972	2007	2045	2083	2111	2134	2161	2187	2214	2250	2289	2341	2414	2474	2477	2460	2434	2390	2335	2291	2245	2194	2140	2085	2030	1976	1916	1850	1789	1742	1703	1676	1665	1665	1681	1708	1743	1787	1834	1876	1918	1965	2014	2062	2110	2157	2203	2250	2292	2324	2354	2385	2413	2444	2505	2559	2578	2560	2525	2474	2422	2393	2397	2402	2386	2366	2326	2263	2207	2175	2146	2122	2102	2085	2085	2094	2090	2073	2075	2126	2192	2254	2309	2365	2415	2456	2493	2528	2552	2556	2557	2557	2561	2575	2606	2634	2676	2735	2761	2697	2617	2568	2538	2515	2500	2491	2491	2499	2511	2518	2523	2527	2527	2531	2546	2566	2590	2624	2655	2669	2669	2669	2669	2651	2609	2560
1952	1981	2010	2041	2074	2106	2130	2151	2175	2199	2223	2254	2288	2335	2405	2465	2484	2481	2463	2424	2372	2327	2281	2229	2172	2116	2064	2012	1955	1891	1831	1780	1737	1703	1682	1672	1680	1699	1728	1768	1814	1856	1900	1949	1996	2044	2093	2141	2189	2238	2284	2321	2355	2385	2414	2449	2506	2558	2583	2573	2542	2490	2436	2406	2410	2417	2403	2386	2353	2298	2249	2221	2197	2171	2146	2124	2121	2123	2108	2082	2073	2117	2177	2237	2294	2350	2395	2431	2467	2500	2521	2530	2536	2544	2552	2570	2607	2642	2685	2735	2755	2699	2628	2580	2552	2533	2514	2501	2496	2504	2515	2517	2520	2525	2527	2532	2541	2552	2565	2590	2616	2622	2616	2617	2626	2617	2581	2536
1979	2008	2036	2064	2092	2120	2146	2172	2199	2223	2247	2270	2296	2332	2375	2419	2464	2495	2491	2459	2413	2364	2312	2259	2199	2142	2093	2045	1993	1942	1889	1833	1780	1737	1701	1676	1675	1685	1707	1743	1786	1833	1885	1936	1982	2029	2079	2129	2178	2227	2274	2315	2355	2390	2428	2469	2522	2567	2598	2604	2585	2524	2456	2418	2411	2409	2395	2376	2352	2323	2293	2276	2262	2237	2199	2166	2151	2139	2115	2086	2072	2105	2155	2213	2275	2335	2382	2421	2453	2472	2486	2502	2517	2532	2547	2569	2628	2693	2729	2728	2714	2677	2636	2599	2574	2557	2535	2516	2509	2521	2533	2532	2533	2540	2549	2558	2559	2558	2559	2569	2582	2588	2588	2587	2588	2576	2542	2499
2002	2030	2057	2082	2106	2131	2161	2193	2221	2246	2271	2286	2305	2332	2356	2384	2450	2505	2510	2483	2443	2390	2336	2281	2221	2164	2120	2076	2031	1989	1943	1884	1825	1774	1725	1687	1675	1677	1692	1722	1760	1811	1868	1920	1965	2012	2063	2115	2165	2214	2261	2307	2351	2393	2438	2485	2534	2576	2610	2630	2625	2556	2478	2431	2415	2403	2387	2366	2349	2339	2327	2320	2316	2292	2244	2203	2179	2156	2125	2092	2071	2095	2136	2193	2258	2319	2366	2407	2435	2445	2456	2477	2500	2521	2541	2568	2642	2728	2759	2722	2682	2666	2648	2621	2600	2586	2561	2540	2533	2545	2559	2558	2557	2566	2580	2592	2585	2574	2568	2565	2564	2564	2563	2560	2558	2547	2513	2467
2020	2047	2072	2095	2115	2139	2170	2204	2236	2269	2298	2308	2318	2341	2366	2394	2462	2519	2520	2484	2435	2384	2333	2285	2233	2183	2142	2101	2057	2015	1969	1916	1863	1814	1768	1730	1704	1690	1690	1708	1736	1783	1839	1892	1941	1993	2044	2095	2144	2191	2237	2285	2332	2377	2422	2469	2525	2577	2616	2640	2642	2575	2494	2444	2423	2402	2384	2365	2351	2345	2338	2332	2325	2303	2266	2232	2207	2182	2148	2108	2081	2096	2129	2178	2241	2300	2343	2380	2407	2421	2435	2457	2480	2506	2534	2564	2627	2694	2727	2711	2692	2678	2662	2647	2647	2647	2618	2589	2576	2581	2590	2586	2583	2597	2627	2649	2634	2611	2595	2583	2571	2566	2561	2553	2538	2518	2491	2458
2034	2060	2084	2104	2121	2142	2174	2211	2247	2291	2329	2334	2336	2358	2385	2414	2482	2538	2534	2480	2418	2369	2324	2283	2242	2201	2164	2125	2084	2039	1991	1945	1902	1856	1816	1782	1741	1707	1694	1697	1713	1755	1808	1861	1915	1971	2021	2070	2118	2163	2208	2257	2308	2354	2396	2440	2505	2572	2618	2646	2656	2594	2513	2462	2439	2412	2390	2372	2357	2350	2345	2335	2322	2303	2281	2257	2233	2209	2174	2128	2095	2102	2123	2165	2226	2284	2319	2350	2377	2395	2413	2437	2460	2488	2524	2560	2606	2650	2684	2698	2702	2691	2676	2672	2697	2715	2679	2637	2620	2619	2623	2615	2607	2626	2679	2715	2689	2651	2626	2605	2585	2577	2571	2557	2524	2491	2476	2461
2046	2069	2091	2110	2126	2146	2179	2217	2258	2305	2348	2363	2372	2394	2424	2455	2509	2556	2549	2485	2411	2363	2320	2280	2249	2224	2192	2158	2121	2077	2031	1987	1943	1896	1855	1817	1768	1725	1701	1692	1697	1732	1779	1828	1883	1939	1990	2040	2089	2134	2179	2230	2282	2328	2369	2414	2480	2549	2604	2644	2663	2620	2556	2514	2487	2457	2423	2393	2367	2358	2354	2343	2327	2310	2292	2269	2246	2224	2192	2149	2118	2118	2131	2159	2208	2256	2288	2316	2343	2365	2388	2414	2441	2469	2504	2543	2583	2621	2657	2687	2702	2698	2688	2695	2724	2743	2710	2670	2651	2649	2652	2647	2641	2663	2715	2747	2717	2675	2645	2621	2601	2588	2579	2560	2527	2495	2476	2460
2055	2075	2094	2112	2129	2150	2184	2222	2263	2307	2349	2383	2416	2449	2489	2525	2558	2577	2559	2484	2402	2356	2318	2283	2267	2255	2230	2201	2168	2131	2089	2038	1985	1933	1884	1837	1788	1745	1714	1695	1691	1714	1750	1793	1844	1899	1952	2007	2058	2104	2151	2203	2253	2299	2344	2393	2449	2506	2568	2625	2660	2654	2636	2609	2569	2529	2476	2422	2384	2374	2368	2354	2338	2320	2298	2274	2252	2230	2204	2173	2150	2146	2153	2167	2189	2217	2245	2274	2303	2335	2366	2397	2429	2458	2487	2521	2555	2586	2629	2683	2717	2716	2706	2709	2723	2731	2711	2688	2674	2671	2675	2679	2686	2705	2731	2742	2717	2682	2654	2633	2617	2596	2576	2559	2550	2536	2497	2453
2059	2077	2093	2110	2129	2151	2183	2221	2263	2306	2347	2396	2446	2487	2533	2577	2596	2599	2568	2487	2400	2359	2327	2302	2294	2288	2269	2244	2215	2182	2144	2088	2028	1974	1919	1865	1816	1771	1732	1704	1692	1701	1725	1761	1808	1860	1915	1972	2023	2071	2120	2171	2220	2265	2313	2363	2413	2462	2529	2601	2650	2680	2701	2689	2643	2598	2534	2462	2415	2401	2386	2368	2349	2329	2306	2282	2261	2240	2218	2196	2180	2172	2173	2177	2177	2186	2210	2238	2269	2308	2347	2383	2420	2453	2481	2510	2539	2565	2613	2685	2739	2734	2722	2721	2725	2727	2716	2705	2696	2696	2701	2711	2726	2743	2750	2752	2726	2694	2664	2646	2635	2609	2580	2563	2570	2570	2520	2461
2050	2069	2087	2106	2126	2149	2181	2216	2255	2293	2332	2376	2421	2460	2502	2542	2567	2580	2569	2525	2474	2419	2363	2330	2324	2314	2298	2278	2251	2217	2179	2128	2075	2025	1974	1923	1870	1818	1770	1730	1702	1698	1709	1734	1774	1821	1874	1931	1983	2033	2083	2134	2184	2226	2262	2302	2362	2424	2493	2565	2619	2659	2690	2699	2686	2668	2600	2520	2462	2433	2402	2383	2367	2349	2323	2298	2273	2251	2232	2219	2210	2198	2191	2185	2177	2177	2196	2223	2254	2293	2337	2379	2421	2462	2497	2533	2572	2611	2661	2725	2773	2769	2754	2751	2750	2748	2737	2725	2723	2731	2739	2760	2786	2803	2810	2812	2768	2719	2684	2672	2662	2629	2592	2566	2563	2559	2526	2488
2032	2053	2076	2097	2119	2144	2175	2208	2243	2277	2311	2348	2383	2418	2454	2489	2523	2549	2560	2573	2567	2493	2402	2362	2359	2347	2330	2312	2284	2247	2208	2164	2120	2075	2032	1987	1930	1871	1817	1763	1720	1703	1701	1715	1745	1786	1836	1891	1943	1994	2046	2098	2149	2188	2208	2237	2309	2388	2459	2523	2580	2624	2661	2690	2721	2734	2667	2577	2512	2469	2424	2404	2391	2371	2341	2314	2286	2260	2244	2243	2241	2225	2209	2196	2181	2174	2190	2217	2247	2285	2331	2379	2426	2473	2519	2560	2610	2663	2713	2764	2805	2798	2782	2778	2775	2772	2761	2750	2753	2765	2775	2806	2848	2866	2870	2873	2813	2743	2707	2705	2699	2658	2610	2577	2560	2550	2537	2526
2010	2031	2055	2080	2106	2134	2165	2199	2232	2263	2297	2330	2362	2395	2427	2457	2496	2529	2553	2588	2604	2542	2463	2429	2418	2398	2374	2347	2312	2274	2234	2195	2155	2114	2076	2036	1983	1926	1869	1810	1758	1728	1711	1711	1731	1762	1805	1856	1906	1957	2009	2063	2116	2158	2179	2208	2280	2360	2425	2483	2541	2593	2638	2686	2741	2770	2722	2646	2581	2522	2463	2433	2413	2386	2355	2327	2297	2270	2256	2259	2260	2246	2228	2211	2192	2179	2190	2212	2242	2280	2327	2383	2438	2488	2533	2573	2620	2671	2715	2757	2790	2790	2782	2783	2787	2794	2796	2792	2797	2810	2820	2842	2873	2888	2894	2895	2840	2775	2746	2751	2750	2704	2652	2618	2599	2582	2582	2582
1982	2003	2027	2054	2086	2119	2153	2190	2224	2259	2294	2329	2362	2392	2417	2444	2480	2512	2540	2574	2593	2577	2556	2534	2495	2455	2419	2378	2335	2296	2257	2217	2178	2141	2106	2071	2026	1980	1927	1868	1815	1769	1734	1721	1729	1749	1783	1825	1871	1919	1970	2029	2087	2135	2173	2214	2277	2344	2403	2449	2498	2556	2613	2672	2738	2780	2773	2745	2684	2590	2505	2459	2424	2391	2363	2337	2308	2282	2268	2268	2268	2259	2247	2231	2210	2194	2196	2208	2234	2272	2320	2387	2457	2509	2540	2569	2605	2640	2673	2699	2721	2736	2751	2768	2792	2818	2834	2842	2851	2875	2889	2868	2842	2846	2873	2888	2849	2804	2788	2807	2818	2772	2715	2681	2659	2642	2651	2663
1950	1973	1997	2028	2065	2102	2140	2179	2217	2253	2290	2327	2363	2391	2411	2432	2460	2488	2526	2563	2585	2609	2631	2614	2560	2514	2466	2413	2361	2321	2280	2238	2199	2165	2134	2101	2067	2030	1980	1923	1868	1810	1761	1736	1732	1741	1764	1799	1840	1884	1934	1999	2063	2115	2163	2214	2270	2329	2383	2420	2457	2517	2580	2653	2729	2784	2809	2817	2759	2643	2541	2486	2439	2400	2374	2347	2318	2292	2280	2280	2280	2274	2265	2248	2226	2210	2204	2207	2228	2265	2312	2386	2467	2518	2538	2560	2586	2610	2634	2649	2660	2691	2724	2759	2801	2842	2869	2884	2895	2921	2937	2877	2805	2798	2841	2863	2838	2809	2809	2842	2869	2830	2773	2739	2721	2704	2720	2739
1919	1945	1975	2010	2051	2092	2127	2162	2199	2240	2279	2318	2354	2384	2406	2426	2453	2481	2513	2541	2563	2599	2632	2637	2615	2589	2534	2470	2408	2357	2307	2263	2222	2186	2156	2125	2094	2060	2014	1958	1901	1840	1786	1751	1734	1730	1743	1768	1805	1852	1906	1968	2031	2084	2133	2183	2241	2300	2354	2395	2436	2495	2557	2628	2704	2759	2787	2796	2751	2653	2565	2509	2461	2418	2391	2365	2339	2318	2307	2300	2294	2288	2280	2263	2240	2223	2213	2212	2226	2255	2296	2367	2444	2498	2526	2554	2585	2613	2638	2652	2665	2696	2732	2776	2832	2883	2917	2937	2930	2913	2891	2836	2781	2768	2787	2797	2782	2768	2772	2799	2826	2818	2799	2788	2773	2760	2784	2811
1887	1918	1953	1992	2038	2083	2114	2141	2177	2222	2266	2305	2342	2373	2396	2417	2444	2472	2498	2511	2528	2571	2614	2638	2655	2654	2593	2519	2452	2389	2332	2286	2243	2206	2177	2147	2119	2086	2043	1990	1932	1869	1812	1769	1739	1723	1726	1741	1774	1825	1881	1940	1998	2050	2098	2147	2206	2267	2322	2369	2414	2471	2529	2596	2666	2721	2747	2755	2724	2650	2577	2529	2484	2441	2412	2386	2364	2349	2336	2320	2307	2301	2295	2279	2255	2236	2222	2217	2225	2245	2279	2345	2417	2474	2514	2551	2590	2630	2661	2675	2689	2722	2756	2806	2872	2927	2966	2990	2965	2890	2822	2782	2756	2739	2728	2721	2717	2717	2725	2737	2758	2789	2821	2829	2814	2800	2833	2872
1859	1893	1931	1973	2020	2067	2097	2123	2159	2203	2245	2285	2323	2354	2378	2400	2423	2448	2466	2476	2494	2542	2590	2624	2654	2662	2606	2534	2471	2409	2350	2306	2264	2230	2201	2172	2148	2119	2077	2024	1967	1902	1842	1794	1756	1731	1723	1729	1754	1801	1856	1910	1966	2019	2066	2115	2175	2236	2290	2340	2389	2441	2495	2553	2614	2666	2697	2711	2696	2649	2599	2559	2519	2478	2443	2405	2385	2372	2359	2341	2326	2317	2308	2291	2268	2248	2232	2222	2223	2237	2267	2329	2399	2461	2509	2554	2607	2657	2696	2720	2745	2775	2810	2864	2931	2982	3004	3013	2972	2879	2791	2750	2725	2699	2681	2675	2674	2679	2689	2703	2727	2783	2837	2858	2848	2839	2861	2888
1836	1872	1909	1952	1998	2042	2077	2109	2144	2179	2213	2256	2298	2330	2352	2373	2392	2410	2428	2443	2465	2508	2550	2584	2618	2630	2584	2520	2465	2414	2363	2324	2290	2259	2228	2198	2181	2161	2119	2063	2004	1939	1877	1827	1784	1752	1733	1728	1744	1785	1836	1885	1936	1986	2034	2083	2142	2203	2260	2313	2364	2412	2458	2507	2554	2597	2627	2645	2651	2662	2658	2621	2572	2527	2473	2419	2400	2390	2378	2364	2351	2334	2316	2297	2279	2262	2242	2228	2225	2234	2261	2318	2384	2448	2508	2563	2625	2684	2736	2786	2830	2856	2885	2937	2996	3038	3037	3010	2954	2865	2779	2732	2701	2673	2658	2656	2653	2657	2670	2692	2725	2791	2856	2886	2890	2884	2872	2852
1813	1848	1886	1929	1974	2016	2054	2091	2124	2151	2180	2222	2266	2298	2320	2340	2357	2372	2390	2409	2432	2471	2507	2542	2578	2597	2560	2505	2457	2419	2378	2346	2318	2292	2260	2228	2215	2200	2158	2098	2039	1975	1914	1863	1817	1778	1750	1733	1740	1774	1818	1861	1907	1955	2001	2050	2108	2170	2228	2284	2337	2381	2421	2461	2497	2530	2559	2579	2608	2664	2705	2675	2623	2572	2508	2439	2418	2409	2398	2386	2373	2349	2323	2303	2288	2274	2252	2235	2228	2234	2255	2308	2371	2437	2503	2568	2635	2699	2761	2830	2888	2910	2936	2986	3040	3075	3055	3005	2934	2845	2761	2715	2682	2655	2640	2638	2637	2643	2657	2683	2723	2796	2867	2905	2915	2904	2863	2808
1776	1815	1857	1902	1947	1989	2025	2061	2091	2119	2149	2183	2218	2248	2275	2301	2320	2338	2361	2388	2417	2452	2486	2520	2551	2568	2552	2522	2489	2452	2414	2388	2364	2337	2308	2277	2250	2221	2174	2110	2049	1995	1945	1899	1854	1814	1776	1747	1742	1762	1793	1832	1877	1923	1968	2015	2071	2130	2189	2247	2304	2348	2388	2426	2459	2491	2517	2539	2571	2623	2663	2671	2660	2624	2553	2482	2454	2436	2416	2400	2382	2355	2328	2307	2292	2279	2259	2242	2233	2235	2252	2301	2361	2424	2488	2550	2612	2670	2722	2776	2823	2848	2879	2938	3011	3066	3037	2974	2901	2829	2757	2703	2661	2634	2620	2616	2619	2628	2645	2668	2704	2784	2861	2893	2888	2866	2825	2776
1739	1782	1829	1875	1917	1958	1994	2029	2059	2086	2116	2142	2166	2195	2232	2264	2285	2305	2334	2374	2411	2443	2473	2501	2523	2537	2545	2549	2531	2489	2450	2431	2412	2385	2358	2328	2286	2239	2184	2116	2052	2012	1978	1939	1897	1857	1809	1767	1749	1754	1772	1807	1852	1895	1935	1980	2033	2089	2148	2209	2268	2316	2360	2398	2428	2457	2482	2504	2536	2574	2608	2660	2704	2683	2602	2525	2489	2461	2437	2416	2393	2363	2332	2310	2297	2285	2266	2251	2241	2238	2251	2296	2353	2413	2472	2529	2582	2629	2671	2702	2734	2762	2797	2868	2971	3048	3007	2927	2857	2815	2765	2699	2638	2608	2599	2598	2603	2616	2633	2651	2682	2765	2846	2872	2848	2811	2777	2740
1707	1750	1798	1842	1883	1924	1959	1992	2022	2051	2080	2105	2128	2161	2200	2236	2262	2287	2321	2364	2405	2433	2459	2484	2502	2514	2537	2558	2556	2528	2501	2482	2460	2426	2394	2359	2307	2252	2195	2130	2070	2041	2016	1982	1944	1903	1848	1798	1769	1760	1764	1791	1829	1868	1907	1951	1999	2052	2110	2173	2234	2283	2328	2367	2399	2429	2453	2478	2521	2564	2601	2667	2725	2709	2635	2571	2532	2499	2467	2441	2409	2375	2341	2316	2303	2292	2274	2259	2249	2244	2255	2296	2350	2405	2461	2515	2560	2601	2633	2655	2680	2714	2753	2829	2942	3023	2982	2900	2835	2796	2749	2680	2617	2586	2580	2583	2589	2603	2622	2642	2673	2748	2821	2841	2808	2762	2731	2698
1684	1723	1766	1810	1851	1892	1922	1949	1980	2014	2046	2077	2107	2142	2180	2216	2250	2284	2321	2363	2402	2426	2446	2466	2479	2490	2520	2548	2563	2568	2563	2537	2503	2460	2415	2369	2312	2253	2200	2148	2101	2079	2060	2031	1996	1955	1897	1841	1802	1778	1769	1782	1807	1841	1886	1934	1973	2015	2071	2137	2201	2248	2289	2330	2372	2411	2441	2473	2525	2577	2620	2681	2731	2721	2668	2620	2581	2541	2504	2472	2434	2394	2357	2329	2312	2299	2282	2270	2260	2255	2264	2302	2351	2404	2460	2512	2556	2595	2623	2641	2664	2700	2743	2821	2934	3013	2975	2901	2834	2774	2712	2649	2596	2569	2562	2568	2576	2591	2613	2642	2679	2740	2794	2803	2759	2707	2679	2653
1667	1700	1739	1781	1822	1862	1890	1913	1945	1985	2020	2054	2090	2127	2165	2203	2242	2281	2319	2359	2397	2418	2433	2446	2454	2466	2502	2538	2568	2597	2609	2576	2532	2483	2428	2371	2312	2252	2202	2162	2130	2117	2105	2083	2050	2008	1947	1887	1838	1801	1780	1781	1794	1822	1869	1917	1948	1982	2034	2102	2168	2214	2254	2298	2349	2396	2437	2478	2530	2585	2640	2695	2742	2742	2703	2659	2624	2585	2549	2514	2472	2425	2381	2347	2325	2310	2294	2283	2274	2269	2277	2313	2358	2409	2464	2517	2559	2598	2625	2642	2662	2698	2741	2823	2935	3014	2973	2899	2826	2754	2686	2625	2576	2547	2542	2553	2563	2580	2605	2640	2680	2729	2769	2766	2713	2652	2627	2607
1654	1682	1719	1759	1797	1838	1874	1908	1944	1981	2014	2046	2080	2116	2154	2192	2230	2268	2303	2340	2374	2395	2412	2429	2441	2456	2490	2526	2562	2598	2616	2579	2525	2467	2409	2352	2296	2243	2203	2177	2157	2153	2147	2127	2090	2043	1983	1923	1872	1829	1800	1791	1795	1813	1849	1890	1918	1952	2003	2068	2133	2182	2226	2273	2325	2376	2430	2485	2550	2619	2680	2708	2722	2724	2721	2711	2694	2670	2639	2587	2530	2473	2418	2372	2344	2324	2308	2298	2291	2288	2298	2333	2379	2425	2472	2516	2559	2600	2635	2656	2679	2726	2782	2851	2932	2988	2954	2890	2819	2746	2676	2607	2552	2521	2523	2539	2548	2563	2591	2631	2670	2708	2733	2724	2678	2625	2597	2572
1645	1668	1705	1741	1775	1815	1862	1910	1949	1981	2012	2040	2070	2105	2142	2179	2217	2252	2285	2316	2345	2369	2390	2410	2428	2447	2478	2511	2551	2594	2616	2573	2506	2441	2385	2330	2278	2233	2204	2193	2187	2191	2192	2173	2131	2079	2021	1964	1911	1864	1827	1809	1803	1810	1834	1865	1891	1924	1973	2035	2098	2150	2199	2249	2298	2351	2416	2487	2563	2649	2721	2713	2678	2681	2727	2755	2758	2755	2727	2658	2585	2521	2456	2401	2366	2341	2324	2315	2310	2309	2320	2357	2403	2446	2480	2516	2561	2608	2648	2672	2695	2756	2831	2889	2922	2947	2923	2878	2811	2735	2663	2588	2523	2492	2502	2525	2532	2543	2574	2620	2662	2687	2695	2681	2647	2603	2570	2539
1649	1662	1690	1721	1755	1795	1846	1897	1936	1965	1995	2023	2052	2087	2125	2162	2199	2233	2264	2291	2317	2343	2367	2390	2412	2435	2462	2493	2538	2589	2619	2573	2501	2428	2368	2312	2268	2233	2216	2215	2220	2235	2243	2228	2185	2128	2072	2015	1960	1910	1868	1837	1818	1813	1825	1846	1867	1897	1943	2002	2065	2116	2166	2217	2267	2323	2395	2471	2548	2636	2708	2687	2642	2648	2704	2743	2761	2773	2760	2702	2641	2571	2497	2434	2393	2362	2344	2335	2331	2332	2344	2378	2421	2461	2491	2525	2572	2620	2661	2692	2722	2773	2836	2881	2901	2911	2889	2847	2782	2710	2639	2561	2493	2463	2475	2500	2512	2528	2563	2611	2653	2669	2668	2649	2616	2575	2539	2505
1661	1659	1671	1696	1734	1778	1826	1875	1911	1934	1959	1990	2023	2060	2103	2145	2180	2213	2242	2265	2288	2315	2341	2368	2398	2426	2448	2474	2522	2584	2622	2580	2509	2433	2361	2300	2265	2245	2239	2245	2258	2285	2306	2295	2247	2187	2131	2075	2020	1969	1923	1879	1842	1823	1819	1827	1844	1872	1915	1972	2032	2081	2130	2180	2231	2289	2360	2433	2507	2588	2652	2638	2608	2613	2646	2674	2705	2730	2738	2726	2697	2622	2538	2468	2420	2383	2364	2355	2351	2356	2370	2398	2434	2470	2499	2534	2579	2623	2668	2723	2769	2783	2791	2821	2859	2879	2846	2793	2732	2672	2610	2530	2461	2429	2439	2464	2488	2517	2556	2606	2646	2654	2644	2622	2587	2544	2507	2472
1674	1659	1659	1677	1715	1758	1804	1852	1886	1904	1924	1958	1994	2034	2082	2128	2163	2195	2221	2242	2262	2290	2318	2349	2384	2418	2435	2457	2509	2580	2626	2586	2517	2438	2358	2293	2269	2261	2265	2279	2300	2338	2370	2362	2311	2248	2193	2138	2082	2029	1980	1922	1872	1838	1820	1814	1827	1851	1889	1942	1999	2046	2094	2144	2195	2251	2318	2388	2464	2542	2595	2583	2560	2561	2581	2612	2654	2690	2713	2734	2733	2661	2573	2503	2449	2404	2383	2373	2369	2374	2388	2412	2442	2473	2501	2534	2576	2617	2664	2732	2790	2776	2745	2759	2806	2828	2791	2734	2683	2635	2578	2499	2428	2398	2408	2433	2466	2503	2547	2596	2636	2633	2615	2587	2551	2509	2471	2433
1701	1675	1661	1669	1700	1738	1779	1821	1857	1881	1907	1944	1984	2024	2070	2113	2148	2180	2207	2228	2249	2278	2308	2338	2370	2400	2418	2439	2494	2573	2626	2585	2513	2434	2356	2294	2282	2288	2301	2320	2345	2391	2429	2425	2377	2314	2253	2191	2131	2078	2027	1961	1899	1855	1827	1812	1817	1835	1867	1913	1964	2010	2058	2111	2168	2228	2295	2363	2430	2490	2532	2533	2527	2537	2561	2594	2631	2666	2696	2738	2758	2693	2606	2536	2480	2427	2400	2383	2374	2375	2384	2402	2428	2459	2492	2528	2564	2601	2639	2687	2727	2720	2702	2714	2747	2761	2733	2687	2646	2607	2558	2484	2417	2389	2398	2423	2457	2497	2534	2571	2598	2593	2573	2542	2501	2455	2416	2377
1733	1695	1665	1664	1690	1723	1757	1793	1830	1863	1896	1937	1980	2020	2062	2103	2137	2168	2196	2220	2242	2272	2304	2333	2360	2386	2403	2424	2481	2569	2629	2586	2510	2429	2353	2294	2294	2316	2336	2357	2385	2436	2481	2482	2436	2374	2308	2238	2176	2126	2074	2001	1929	1876	1841	1818	1815	1826	1850	1888	1933	1975	2022	2078	2142	2208	2276	2344	2403	2439	2466	2485	2504	2524	2552	2587	2618	2644	2681	2745	2786	2726	2636	2567	2514	2458	2422	2395	2379	2373	2376	2387	2405	2434	2476	2515	2545	2573	2602	2624	2644	2650	2654	2665	2683	2691	2671	2641	2609	2579	2540	2472	2409	2381	2388	2411	2447	2488	2518	2537	2549	2542	2522	2489	2443	2394	2354	2314
1758	1713	1676	1667	1686	1713	1744	1777	1815	1853	1893	1934	1977	2018	2056	2093	2129	2161	2189	2214	2238	2269	2302	2332	2359	2385	2403	2424	2479	2565	2627	2587	2513	2434	2359	2296	2302	2329	2356	2377	2406	2458	2506	2514	2474	2420	2353	2281	2219	2170	2120	2045	1970	1911	1869	1838	1827	1828	1842	1870	1906	1945	1990	2046	2112	2181	2249	2315	2370	2402	2428	2460	2490	2518	2551	2589	2613	2637	2680	2747	2794	2756	2687	2624	2565	2501	2455	2420	2394	2379	2372	2376	2387	2411	2448	2482	2504	2526	2550	2565	2578	2588	2596	2606	2620	2629	2616	2593	2567	2545	2516	2454	2395	2368	2374	2393	2423	2458	2482	2490	2492	2481	2460	2424	2377	2328	2288	2249
1778	1733	1695	1680	1687	1706	1733	1768	1808	1854	1900	1940	1979	2016	2048	2081	2121	2159	2189	2213	2238	2269	2302	2334	2366	2396	2416	2441	2491	2567	2622	2587	2517	2442	2369	2306	2309	2334	2360	2381	2408	2458	2506	2520	2492	2448	2387	2319	2258	2211	2162	2092	2022	1960	1911	1874	1852	1842	1845	1858	1882	1917	1961	2015	2080	2148	2215	2279	2336	2377	2413	2447	2478	2513	2562	2608	2629	2648	2684	2731	2769	2777	2766	2718	2635	2551	2500	2458	2422	2392	2372	2370	2378	2393	2412	2432	2451	2471	2490	2506	2519	2531	2543	2553	2561	2567	2559	2543	2524	2508	2485	2428	2373	2348	2354	2370	2390	2410	2425	2427	2424	2411	2388	2353	2308	2262	2222	2184
1801	1755	1715	1694	1691	1703	1727	1761	1803	1854	1907	1946	1982	2016	2045	2074	2117	2159	2192	2216	2242	2274	2307	2340	2376	2408	2429	2454	2504	2572	2620	2590	2525	2452	2380	2321	2319	2339	2361	2378	2402	2451	2500	2521	2505	2470	2415	2352	2295	2249	2203	2137	2071	2009	1954	1911	1880	1860	1851	1851	1863	1894	1936	1988	2051	2119	2188	2253	2309	2358	2400	2436	2469	2513	2572	2621	2634	2648	2680	2716	2746	2797	2832	2797	2702	2607	2551	2503	2457	2414	2382	2373	2375	2381	2386	2395	2410	2425	2435	2447	2459	2475	2492	2502	2504	2502	2498	2488	2477	2466	2446	2394	2343	2318	2323	2337	2348	2357	2363	2360	2350	2337	2315	2282	2241	2198	2161	2126
1829	1782	1739	1712	1700	1701	1718	1747	1788	1842	1899	1942	1982	2020	2053	2086	2128	2170	2204	2231	2258	2290	2323	2354	2385	2413	2435	2461	2505	2562	2605	2596	2560	2498	2417	2347	2336	2346	2358	2373	2396	2437	2479	2513	2526	2516	2459	2386	2324	2280	2236	2172	2106	2045	1989	1941	1902	1874	1856	1849	1856	1882	1920	1970	2032	2101	2172	2241	2303	2355	2400	2439	2474	2510	2551	2586	2600	2614	2642	2676	2713	2787	2848	2835	2753	2665	2605	2551	2499	2452	2412	2397	2392	2391	2390	2391	2392	2391	2391	2395	2401	2415	2429	2438	2441	2440	2436	2430	2417	2402	2380	2335	2292	2269	2268	2276	2281	2286	2289	2286	2277	2267	2250	2222	2184	2147	2117	2090
1861	1813	1767	1733	1710	1701	1710	1732	1772	1828	1887	1935	1980	2021	2060	2097	2138	2178	2214	2244	2273	2306	2338	2367	2390	2413	2437	2464	2503	2545	2579	2598	2603	2551	2456	2374	2354	2351	2357	2370	2393	2424	2454	2498	2550	2569	2504	2415	2348	2307	2264	2201	2137	2077	2020	1968	1924	1888	1864	1851	1852	1873	1907	1954	2017	2086	2159	2232	2297	2353	2401	2442	2479	2508	2525	2542	2559	2577	2603	2633	2673	2772	2863	2870	2802	2722	2661	2604	2549	2498	2454	2433	2422	2417	2411	2407	2392	2374	2363	2358	2356	2366	2377	2383	2385	2384	2380	2376	2362	2338	2312	2276	2243	2222	2215	2216	2218	2219	2220	2218	2210	2203	2193	2168	2134	2101	2079	2063
1894	1845	1797	1758	1728	1709	1708	1723	1759	1814	1874	1923	1970	2012	2052	2093	2135	2176	2213	2246	2275	2307	2338	2366	2388	2409	2432	2457	2495	2532	2562	2593	2610	2568	2479	2404	2377	2367	2365	2374	2394	2424	2455	2507	2573	2604	2536	2443	2371	2326	2281	2222	2161	2104	2048	1997	1948	1906	1875	1857	1852	1868	1897	1941	2000	2065	2138	2213	2282	2340	2390	2430	2467	2493	2505	2519	2538	2559	2587	2619	2662	2773	2878	2904	2851	2785	2727	2670	2609	2554	2510	2485	2470	2459	2450	2439	2414	2388	2371	2359	2350	2353	2356	2353	2349	2340	2333	2327	2313	2289	2263	2234	2208	2191	2184	2184	2183	2180	2176	2172	2161	2150	2137	2111	2080	2054	2039	2031
1923	1876	1830	1788	1752	1725	1714	1719	1748	1800	1859	1906	1950	1992	2034	2075	2118	2159	2197	2234	2266	2296	2324	2352	2377	2401	2422	2446	2482	2516	2545	2575	2589	2555	2494	2438	2406	2388	2380	2384	2401	2433	2472	2529	2597	2629	2563	2470	2393	2335	2283	2230	2179	2127	2077	2029	1975	1925	1889	1865	1855	1866	1891	1928	1976	2033	2109	2188	2257	2316	2367	2406	2440	2469	2490	2510	2535	2564	2599	2634	2678	2788	2896	2932	2897	2846	2799	2749	2686	2620	2570	2542	2522	2509	2502	2490	2463	2435	2414	2395	2379	2373	2365	2351	2334	2316	2302	2289	2275	2255	2234	2213	2196	2185	2182	2182	2179	2173	2164	2152	2132	2111	2087	2057	2027	2005	1998	1996
1951	1907	1862	1817	1775	1743	1722	1717	1739	1788	1843	1887	1930	1972	2013	2055	2098	2138	2177	2217	2253	2280	2307	2335	2362	2389	2413	2438	2470	2501	2531	2560	2573	2551	2508	2463	2429	2407	2400	2400	2410	2447	2490	2551	2620	2656	2587	2491	2408	2342	2285	2238	2193	2146	2101	2057	1999	1945	1903	1876	1861	1866	1886	1916	1954	2004	2078	2159	2229	2286	2339	2381	2416	2448	2476	2501	2536	2576	2614	2648	2697	2800	2910	2957	2935	2896	2857	2815	2752	2680	2624	2596	2575	2561	2557	2547	2519	2491	2466	2442	2423	2407	2389	2365	2337	2310	2290	2271	2254	2238	2222	2211	2203	2199	2200	2200	2196	2187	2172	2150	2123	2089	2055	2020	1990	1969	1969	1976
1964	1923	1882	1840	1798	1763	1733	1717	1731	1775	1827	1870	1912	1955	1998	2042	2086	2129	2167	2201	2232	2259	2285	2314	2347	2379	2405	2433	2475	2522	2561	2578	2577	2547	2507	2467	2438	2418	2412	2412	2423	2470	2525	2585	2647	2675	2605	2509	2427	2359	2299	2252	2209	2163	2118	2073	2018	1965	1922	1892	1872	1873	1887	1911	1942	1985	2052	2127	2193	2252	2308	2354	2394	2433	2469	2503	2542	2585	2630	2680	2733	2800	2867	2916	2936	2932	2883	2821	2757	2703	2662	2643	2629	2615	2600	2583	2555	2527	2506	2492	2477	2458	2435	2402	2361	2323	2298	2278	2260	2248	2238	2234	2232	2235	2241	2246	2244	2234	2215	2188	2151	2099	2048	2008	1980	1966	1976	1995
1975	1940	1905	1864	1823	1787	1747	1718	1725	1765	1814	1855	1897	1940	1984	2029	2076	2122	2158	2185	2211	2237	2263	2295	2334	2372	2401	2432	2482	2551	2604	2605	2582	2547	2509	2473	2450	2432	2426	2427	2438	2494	2559	2617	2668	2687	2613	2516	2435	2366	2305	2259	2219	2174	2128	2083	2032	1982	1940	1907	1884	1881	1891	1908	1933	1969	2028	2094	2158	2218	2276	2326	2372	2416	2461	2503	2544	2586	2636	2707	2774	2793	2799	2849	2926	2964	2900	2807	2744	2714	2690	2681	2680	2666	2637	2611	2584	2557	2541	2540	2533	2512	2487	2448	2392	2343	2317	2297	2281	2273	2269	2271	2274	2283	2297	2305	2304	2293	2270	2238	2194	2123	2051	2005	1982	1975	1996	2029
2000	1966	1932	1893	1851	1814	1769	1733	1731	1764	1805	1843	1883	1926	1970	2014	2061	2107	2144	2170	2195	2221	2249	2285	2328	2373	2408	2443	2497	2572	2633	2623	2592	2559	2524	2488	2474	2465	2462	2461	2472	2527	2587	2628	2658	2656	2584	2492	2414	2349	2291	2246	2207	2168	2125	2082	2037	1993	1953	1920	1896	1890	1895	1907	1925	1955	2006	2065	2126	2186	2244	2299	2349	2397	2445	2491	2531	2572	2620	2690	2757	2761	2756	2805	2902	2966	2905	2812	2756	2732	2704	2699	2699	2688	2659	2633	2610	2587	2572	2573	2569	2545	2518	2479	2423	2373	2346	2327	2314	2310	2313	2324	2334	2345	2359	2365	2363	2351	2321	2278	2223	2139	2059	2010	1991	1991	2022	2065
2043	2006	1966	1925	1884	1846	1798	1760	1750	1769	1800	1833	1871	1913	1955	1997	2042	2087	2124	2154	2183	2212	2244	2283	2330	2379	2419	2460	2515	2593	2656	2641	2601	2568	2538	2505	2509	2523	2526	2515	2519	2566	2613	2630	2612	2576	2512	2439	2371	2313	2263	2218	2179	2143	2107	2070	2036	2001	1965	1932	1907	1899	1901	1908	1922	1947	1988	2039	2095	2153	2212	2272	2330	2380	2425	2468	2505	2543	2585	2636	2688	2703	2717	2774	2885	2968	2916	2828	2778	2753	2721	2710	2699	2687	2667	2647	2630	2615	2601	2596	2589	2559	2524	2489	2448	2409	2383	2364	2355	2352	2358	2381	2404	2416	2422	2420	2418	2408	2370	2302	2227	2141	2062	2015	2002	2008	2047	2097
2088	2047	2003	1961	1920	1879	1830	1788	1770	1778	1798	1826	1861	1899	1939	1981	2026	2070	2108	2141	2171	2205	2241	2284	2334	2383	2424	2467	2527	2608	2671	2652	2607	2574	2551	2528	2546	2577	2584	2566	2562	2597	2631	2624	2568	2499	2440	2381	2319	2271	2230	2190	2152	2122	2094	2063	2038	2013	1981	1948	1922	1910	1908	1911	1920	1940	1973	2016	2067	2124	2182	2246	2309	2362	2405	2444	2476	2509	2550	2591	2629	2648	2671	2741	2870	2972	2936	2854	2803	2782	2757	2735	2713	2697	2681	2664	2646	2634	2620	2610	2600	2566	2525	2491	2465	2438	2416	2401	2398	2398	2406	2438	2469	2482	2480	2470	2464	2453	2405	2319	2228	2140	2063	2017	2009	2027	2072	2129
2123	2082	2038	1995	1953	1912	1863	1820	1794	1786	1790	1815	1851	1889	1929	1973	2017	2059	2098	2133	2167	2203	2240	2286	2341	2392	2428	2466	2518	2584	2638	2636	2615	2596	2571	2548	2558	2577	2589	2593	2602	2630	2649	2621	2543	2458	2393	2334	2277	2233	2199	2169	2142	2124	2107	2086	2065	2042	2011	1978	1950	1930	1919	1914	1916	1930	1956	1992	2042	2101	2162	2227	2291	2344	2388	2429	2460	2491	2528	2568	2607	2629	2654	2718	2826	2921	2942	2931	2912	2884	2848	2819	2791	2767	2742	2715	2683	2654	2622	2593	2569	2541	2513	2488	2468	2450	2432	2421	2428	2447	2469	2505	2536	2541	2520	2494	2476	2451	2396	2311	2221	2134	2060	2021	2022	2048	2097	2159
2155	2114	2069	2026	1985	1944	1896	1853	1820	1793	1780	1803	1842	1880	1920	1966	2008	2048	2087	2126	2163	2200	2235	2282	2343	2396	2424	2453	2497	2544	2587	2610	2624	2618	2591	2568	2567	2569	2584	2615	2639	2659	2667	2622	2519	2418	2350	2295	2243	2203	2175	2158	2144	2137	2134	2123	2104	2080	2049	2014	1983	1954	1932	1919	1915	1923	1942	1972	2019	2082	2147	2211	2275	2330	2374	2416	2448	2478	2515	2557	2599	2623	2651	2708	2782	2857	2945	3023	3030	2989	2941	2901	2867	2835	2799	2763	2715	2664	2617	2567	2527	2510	2500	2485	2472	2462	2448	2437	2453	2494	2530	2567	2599	2594	2549	2503	2473	2435	2376	2295	2209	2125	2057	2024	2034	2069	2122	2186
2182	2140	2095	2051	2009	1967	1923	1881	1842	1804	1780	1795	1826	1861	1902	1949	1993	2035	2077	2116	2156	2195	2231	2272	2323	2367	2390	2415	2458	2502	2541	2582	2616	2622	2609	2603	2598	2594	2612	2649	2670	2672	2660	2596	2485	2379	2312	2260	2221	2192	2175	2173	2172	2173	2176	2169	2147	2119	2086	2049	2013	1977	1947	1928	1920	1924	1939	1965	2007	2067	2132	2196	2259	2315	2362	2405	2442	2476	2515	2559	2601	2634	2669	2727	2790	2852	2965	3070	3089	3040	2984	2931	2886	2841	2804	2768	2712	2653	2602	2549	2504	2493	2490	2483	2478	2481	2478	2475	2494	2537	2572	2602	2625	2611	2556	2503	2470	2428	2365	2285	2196	2116	2053	2029	2045	2086	2144	2214
2203	2160	2115	2070	2025	1979	1942	1908	1867	1822	1791	1789	1801	1830	1874	1924	1973	2021	2065	2105	2144	2188	2230	2261	2285	2307	2329	2355	2399	2448	2494	2544	2590	2615	2643	2666	2655	2641	2658	2692	2706	2675	2617	2539	2444	2352	2285	2233	2204	2196	2198	2213	2228	2235	2238	2230	2197	2155	2116	2079	2041	1999	1962	1939	1931	1934	1946	1969	2007	2060	2120	2179	2237	2294	2348	2397	2439	2479	2522	2566	2609	2661	2719	2778	2825	2879	2989	3090	3106	3035	2958	2895	2838	2789	2762	2734	2679	2622	2575	2534	2501	2492	2493	2492	2495	2507	2520	2533	2554	2583	2603	2616	2618	2596	2547	2499	2465	2423	2361	2281	2193	2115	2054	2034	2054	2099	2165	2243
2222	2179	2134	2088	2040	1994	1963	1934	1890	1838	1799	1782	1779	1803	1850	1900	1951	2003	2050	2090	2129	2175	2218	2242	2245	2251	2274	2299	2339	2391	2445	2505	2560	2609	2667	2708	2696	2676	2691	2725	2742	2680	2588	2496	2412	2329	2266	2219	2203	2213	2232	2262	2290	2304	2306	2294	2249	2196	2150	2112	2071	2023	1979	1952	1943	1945	1953	1973	2007	2053	2108	2164	2218	2275	2335	2388	2434	2479	2525	2569	2616	2684	2758	2808	2838	2884	2992	3096	3109	3019	2916	2849	2786	2739	2719	2697	2648	2596	2553	2522	2501	2497	2504	2514	2525	2539	2564	2589	2610	2626	2639	2633	2615	2584	2541	2493	2461	2419	2359	2281	2198	2119	2059	2042	2065	2113	2184	2267
2238	2198	2157	2112	2064	2017	1982	1948	1901	1847	1804	1781	1775	1793	1833	1878	1929	1980	2027	2068	2107	2155	2200	2219	2211	2209	2237	2274	2317	2369	2423	2477	2527	2573	2623	2662	2675	2684	2714	2754	2772	2697	2591	2492	2408	2330	2277	2241	2235	2257	2288	2329	2365	2378	2367	2342	2296	2243	2196	2153	2107	2052	2000	1966	1951	1947	1951	1966	1996	2039	2092	2152	2213	2271	2324	2373	2421	2466	2510	2551	2593	2655	2721	2768	2801	2846	2943	3035	3060	3009	2941	2867	2791	2738	2715	2690	2645	2599	2563	2540	2526	2522	2526	2542	2565	2591	2632	2672	2690	2687	2678	2654	2623	2586	2545	2501	2479	2451	2390	2301	2210	2131	2073	2057	2081	2130	2200	2281
2254	2219	2183	2141	2092	2045	2006	1964	1914	1860	1813	1786	1777	1789	1820	1860	1907	1957	2002	2041	2078	2131	2182	2198	2175	2163	2203	2258	2306	2355	2407	2453	2492	2531	2564	2594	2634	2680	2724	2775	2799	2712	2591	2489	2410	2338	2295	2269	2273	2306	2347	2396	2439	2449	2422	2382	2336	2287	2239	2192	2143	2081	2020	1979	1958	1949	1948	1958	1983	2023	2072	2137	2208	2266	2310	2353	2402	2449	2490	2524	2560	2612	2665	2708	2745	2791	2876	2954	2994	2999	2973	2893	2802	2746	2721	2694	2653	2611	2581	2567	2560	2552	2550	2569	2604	2640	2695	2754	2769	2741	2711	2673	2627	2587	2551	2510	2501	2489	2429	2323	2221	2143	2089	2073	2098	2148	2214	2290
2273	2243	2211	2173	2128	2083	2042	1998	1946	1888	1835	1801	1784	1787	1811	1846	1888	1933	1973	2009	2043	2093	2142	2160	2139	2128	2173	2231	2281	2330	2382	2424	2461	2498	2526	2551	2600	2653	2705	2760	2785	2697	2578	2479	2406	2346	2311	2294	2306	2344	2391	2444	2490	2497	2461	2413	2366	2316	2266	2219	2170	2103	2038	1991	1966	1951	1947	1953	1973	2008	2050	2114	2185	2241	2283	2327	2377	2425	2464	2494	2526	2571	2616	2654	2689	2732	2810	2883	2934	2964	2962	2894	2810	2758	2731	2704	2667	2630	2604	2593	2589	2582	2580	2597	2632	2668	2722	2778	2793	2760	2724	2683	2634	2592	2559	2524	2513	2500	2440	2333	2232	2155	2101	2086	2113	2165	2228	2299
2299	2271	2242	2209	2172	2131	2092	2049	1994	1927	1867	1825	1797	1792	1809	1839	1872	1908	1943	1977	2010	2047	2079	2101	2104	2110	2150	2199	2247	2300	2355	2401	2445	2482	2506	2530	2571	2613	2663	2711	2729	2657	2559	2468	2399	2347	2321	2316	2333	2368	2412	2471	2522	2526	2480	2424	2378	2330	2281	2235	2186	2120	2055	2005	1974	1955	1948	1953	1968	1992	2026	2083	2147	2202	2247	2293	2346	2398	2439	2470	2500	2537	2575	2609	2641	2681	2749	2814	2869	2909	2919	2878	2824	2779	2743	2713	2681	2651	2629	2616	2610	2609	2615	2629	2650	2674	2713	2748	2760	2742	2714	2680	2641	2603	2575	2545	2518	2484	2423	2331	2239	2162	2108	2095	2127	2183	2243	2311
2328	2301	2274	2247	2216	2180	2141	2100	2041	1968	1902	1853	1816	1802	1814	1837	1861	1889	1918	1950	1983	2012	2035	2058	2079	2099	2136	2179	2230	2285	2337	2390	2438	2471	2492	2515	2550	2585	2633	2675	2684	2622	2541	2457	2392	2346	2329	2334	2354	2385	2427	2490	2545	2546	2491	2426	2383	2339	2294	2249	2200	2135	2071	2019	1984	1960	1951	1954	1963	1976	2003	2054	2112	2164	2211	2258	2317	2373	2419	2451	2480	2511	2543	2574	2605	2643	2700	2757	2815	2865	2887	2867	2833	2792	2752	2721	2694	2671	2653	2640	2632	2634	2645	2653	2661	2679	2708	2728	2737	2728	2705	2678	2648	2615	2590	2565	2525	2475	2410	2326	2241	2166	2114	2107	2144	2201	2259	2322
2357	2331	2306	2279	2249	2214	2173	2127	2069	2001	1938	1887	1847	1827	1827	1838	1861	1890	1914	1937	1964	2000	2036	2072	2106	2137	2172	2208	2250	2293	2336	2393	2448	2484	2504	2528	2571	2615	2662	2701	2706	2636	2544	2461	2399	2354	2341	2349	2371	2404	2445	2498	2541	2540	2496	2440	2400	2358	2315	2271	2222	2158	2094	2040	1998	1967	1955	1954	1960	1969	1990	2033	2084	2134	2181	2232	2297	2361	2412	2449	2482	2510	2540	2570	2602	2643	2695	2745	2799	2853	2878	2859	2825	2788	2751	2722	2702	2688	2676	2663	2655	2656	2665	2672	2681	2700	2727	2749	2765	2772	2761	2732	2694	2654	2616	2576	2530	2476	2410	2336	2261	2184	2127	2121	2162	2220	2276	2335
2387	2360	2337	2311	2280	2246	2201	2149	2091	2031	1973	1921	1880	1854	1841	1841	1864	1897	1919	1929	1950	1996	2048	2096	2146	2190	2221	2247	2280	2309	2341	2402	2464	2501	2519	2542	2595	2651	2698	2733	2738	2655	2548	2463	2405	2362	2353	2362	2385	2422	2464	2505	2530	2529	2500	2455	2417	2378	2337	2294	2246	2183	2119	2063	2014	1975	1960	1957	1959	1965	1982	2016	2059	2105	2152	2206	2278	2351	2408	2450	2488	2515	2542	2575	2613	2659	2706	2746	2798	2855	2885	2861	2821	2784	2749	2721	2711	2708	2700	2687	2678	2678	2684	2692	2703	2722	2750	2775	2796	2822	2827	2789	2738	2691	2637	2583	2530	2471	2406	2346	2284	2202	2137	2133	2181	2242	2295	2349
2419	2390	2365	2338	2309	2277	2229	2175	2118	2060	2003	1950	1907	1875	1854	1847	1866	1896	1916	1925	1946	1997	2056	2113	2171	2225	2255	2279	2305	2327	2351	2408	2467	2502	2518	2539	2595	2653	2694	2720	2718	2639	2538	2461	2406	2366	2363	2376	2401	2436	2477	2516	2540	2539	2511	2467	2431	2394	2355	2311	2263	2203	2142	2084	2031	1989	1970	1963	1961	1963	1975	2000	2036	2078	2126	2180	2255	2331	2390	2436	2477	2507	2538	2579	2628	2680	2731	2775	2819	2867	2894	2873	2834	2796	2762	2727	2719	2721	2721	2711	2705	2704	2706	2714	2728	2748	2773	2795	2812	2836	2844	2804	2751	2702	2645	2584	2524	2460	2393	2336	2281	2207	2148	2150	2202	2266	2315	2363
2451	2419	2390	2363	2338	2309	2259	2203	2146	2087	2028	1975	1930	1893	1867	1855	1865	1884	1902	1919	1945	1998	2062	2122	2179	2233	2270	2299	2324	2344	2365	2410	2456	2486	2497	2514	2569	2625	2658	2662	2643	2587	2519	2454	2402	2367	2370	2391	2417	2448	2485	2532	2570	2570	2528	2476	2443	2410	2370	2320	2268	2216	2165	2109	2052	2005	1983	1972	1965	1963	1971	1987	2011	2050	2099	2155	2227	2300	2358	2403	2446	2481	2519	2572	2636	2700	2769	2837	2877	2890	2895	2882	2854	2820	2784	2746	2737	2738	2743	2737	2734	2730	2728	2734	2754	2776	2797	2816	2820	2814	2803	2771	2729	2684	2633	2577	2510	2441	2371	2305	2248	2193	2159	2172	2228	2294	2338	2378
2481	2446	2416	2390	2368	2338	2286	2229	2170	2111	2053	2000	1952	1909	1877	1859	1862	1874	1890	1910	1938	1995	2062	2129	2188	2241	2285	2319	2341	2358	2378	2412	2450	2474	2482	2492	2543	2595	2623	2612	2582	2543	2498	2445	2397	2370	2377	2403	2432	2459	2492	2546	2593	2593	2543	2486	2456	2426	2384	2331	2276	2233	2190	2135	2074	2024	1998	1984	1973	1967	1969	1977	1992	2024	2073	2129	2196	2266	2325	2369	2411	2453	2498	2560	2638	2714	2798	2883	2923	2912	2899	2897	2880	2847	2810	2774	2768	2772	2777	2773	2769	2765	2761	2766	2785	2804	2813	2825	2818	2789	2758	2732	2698	2654	2609	2557	2486	2413	2344	2275	2216	2180	2167	2189	2250	2321	2360	2394
2522	2479	2440	2412	2386	2350	2301	2247	2193	2140	2088	2030	1974	1924	1885	1860	1858	1867	1881	1899	1928	1987	2057	2130	2197	2259	2312	2354	2376	2384	2393	2419	2448	2473	2487	2500	2552	2604	2628	2613	2585	2545	2500	2449	2409	2386	2390	2410	2433	2459	2492	2541	2583	2585	2547	2499	2469	2439	2401	2355	2307	2261	2214	2159	2100	2050	2017	1995	1979	1970	1968	1973	1985	2012	2055	2105	2166	2228	2285	2331	2376	2426	2479	2548	2631	2712	2787	2857	2899	2909	2915	2930	2933	2906	2858	2817	2809	2812	2829	2858	2877	2861	2840	2835	2847	2854	2838	2818	2795	2761	2726	2699	2668	2626	2579	2526	2453	2378	2310	2248	2199	2174	2172	2205	2272	2344	2380	2409
2568	2516	2465	2432	2403	2363	2316	2266	2214	2168	2122	2058	1994	1938	1892	1860	1854	1860	1871	1887	1916	1976	2048	2126	2204	2275	2337	2392	2416	2411	2412	2432	2454	2480	2504	2522	2576	2632	2652	2631	2600	2560	2514	2465	2428	2406	2405	2418	2436	2458	2490	2534	2567	2572	2550	2513	2483	2453	2419	2382	2342	2293	2239	2183	2130	2081	2041	2008	1987	1977	1972	1974	1984	2005	2041	2086	2138	2191	2245	2293	2340	2396	2459	2531	2618	2703	2763	2810	2855	2893	2921	2958	2988	2968	2906	2856	2847	2844	2872	2945	2994	2958	2907	2891	2901	2902	2856	2798	2761	2728	2691	2666	2640	2599	2550	2494	2420	2343	2277	2225	2186	2172	2181	2221	2293	2366	2399	2424
2600	2553	2508	2474	2440	2399	2344	2289	2235	2189	2142	2075	2008	1949	1898	1861	1850	1853	1862	1876	1906	1967	2040	2119	2201	2277	2345	2405	2436	2437	2442	2468	2494	2525	2554	2579	2621	2664	2675	2656	2631	2590	2542	2496	2459	2430	2422	2427	2440	2460	2489	2533	2568	2578	2560	2528	2498	2467	2434	2402	2367	2319	2267	2216	2164	2114	2071	2033	2007	1992	1983	1979	1984	2000	2028	2066	2113	2164	2215	2263	2313	2371	2435	2507	2590	2673	2732	2776	2823	2870	2904	2957	3001	2995	2936	2889	2886	2890	2918	2985	3027	2985	2929	2902	2900	2890	2838	2773	2731	2698	2662	2638	2613	2575	2525	2471	2401	2328	2265	2217	2182	2177	2194	2241	2313	2386	2418	2440
2607	2584	2572	2544	2501	2454	2384	2309	2249	2199	2147	2083	2019	1958	1902	1860	1848	1850	1857	1868	1895	1957	2032	2111	2190	2267	2333	2391	2431	2455	2478	2518	2562	2601	2638	2668	2677	2674	2678	2689	2686	2637	2575	2528	2493	2462	2443	2433	2441	2464	2493	2543	2590	2603	2579	2544	2512	2477	2445	2417	2387	2345	2300	2253	2199	2147	2106	2071	2040	2016	2000	1991	1991	1999	2015	2043	2091	2146	2197	2245	2296	2352	2412	2480	2553	2627	2691	2747	2796	2836	2868	2929	2982	2985	2940	2903	2921	2954	2972	2970	2962	2936	2903	2872	2842	2811	2775	2738	2704	2675	2643	2618	2591	2552	2506	2456	2393	2329	2272	2225	2191	2191	2215	2264	2331	2399	2432	2454
2617	2609	2620	2596	2546	2494	2413	2325	2259	2208	2153	2093	2031	1967	1908	1862	1848	1850	1854	1861	1885	1944	2019	2096	2172	2249	2316	2371	2420	2463	2500	2554	2611	2658	2700	2736	2716	2680	2678	2713	2725	2671	2603	2557	2527	2499	2468	2444	2447	2471	2502	2555	2608	2624	2596	2563	2529	2492	2459	2435	2408	2373	2336	2292	2239	2188	2148	2114	2079	2047	2023	2008	2002	2003	2008	2026	2072	2129	2179	2226	2278	2332	2390	2456	2522	2586	2651	2712	2757	2791	2828	2891	2948	2958	2923	2888	2919	2973	2986	2936	2891	2877	2859	2823	2776	2734	2713	2696	2669	2643	2622	2596	2567	2529	2486	2437	2382	2327	2275	2231	2202	2207	2235	2287	2352	2415	2448	2470
2644	2619	2609	2575	2523	2470	2399	2326	2268	2220	2171	2111	2047	1982	1922	1874	1856	1853	1855	1862	1884	1935	2001	2069	2139	2212	2280	2341	2394	2440	2480	2537	2595	2642	2684	2717	2697	2665	2661	2682	2690	2659	2618	2587	2557	2528	2498	2474	2469	2487	2511	2554	2597	2616	2607	2590	2555	2514	2479	2456	2432	2403	2373	2340	2303	2263	2215	2168	2125	2087	2055	2031	2015	2007	2007	2020	2056	2102	2149	2200	2256	2316	2378	2446	2510	2572	2632	2686	2725	2753	2781	2830	2872	2879	2853	2825	2856	2900	2914	2881	2852	2838	2821	2789	2746	2705	2682	2662	2638	2617	2596	2564	2528	2487	2441	2394	2350	2308	2265	2223	2197	2202	2230	2289	2364	2433	2469	2490
2661	2616	2578	2537	2483	2427	2373	2323	2275	2234	2191	2131	2066	2000	1940	1890	1867	1858	1858	1866	1886	1928	1980	2041	2104	2171	2242	2308	2363	2408	2448	2503	2556	2601	2643	2673	2656	2632	2626	2632	2634	2631	2629	2614	2584	2555	2529	2508	2499	2507	2525	2555	2583	2605	2620	2622	2585	2537	2500	2479	2457	2432	2408	2385	2368	2343	2285	2220	2170	2129	2092	2058	2032	2017	2012	2020	2043	2076	2119	2174	2233	2299	2369	2437	2499	2559	2612	2659	2692	2713	2734	2764	2783	2786	2769	2749	2774	2808	2823	2816	2807	2798	2786	2760	2722	2683	2656	2631	2607	2590	2570	2530	2485	2440	2391	2345	2315	2292	2258	2219	2197	2204	2231	2296	2385	2461	2497	2520
2638	2587	2545	2506	2455	2399	2356	2316	2279	2246	2210	2154	2090	2024	1961	1907	1878	1865	1861	1866	1885	1918	1964	2021	2081	2145	2217	2284	2339	2382	2423	2470	2515	2555	2591	2613	2597	2577	2575	2582	2589	2603	2617	2618	2604	2593	2566	2542	2530	2535	2550	2570	2589	2611	2638	2650	2616	2568	2531	2505	2480	2457	2436	2415	2403	2384	2328	2263	2213	2169	2127	2089	2056	2034	2025	2025	2040	2064	2103	2155	2211	2277	2347	2412	2471	2528	2576	2619	2648	2665	2680	2703	2717	2714	2697	2681	2703	2731	2748	2751	2749	2754	2752	2735	2699	2659	2630	2603	2577	2557	2531	2487	2440	2396	2350	2308	2291	2279	2259	2231	2220	2240	2276	2349	2444	2524	2547	2557
2597	2549	2512	2478	2438	2394	2353	2314	2284	2262	2232	2182	2123	2055	1984	1923	1889	1871	1862	1866	1882	1909	1949	2004	2067	2133	2206	2276	2330	2370	2407	2444	2478	2506	2525	2536	2528	2518	2521	2535	2550	2567	2586	2605	2630	2648	2614	2574	2561	2573	2590	2597	2603	2624	2660	2681	2654	2614	2574	2532	2495	2472	2451	2429	2411	2389	2345	2298	2252	2206	2163	2121	2083	2056	2046	2043	2049	2066	2097	2140	2190	2250	2314	2374	2429	2483	2528	2568	2596	2612	2627	2653	2672	2669	2654	2638	2647	2660	2677	2691	2701	2717	2726	2715	2680	2640	2609	2579	2547	2515	2483	2440	2396	2356	2317	2285	2275	2273	2266	2261	2268	2305	2360	2442	2546	2631	2627	2599
2566	2519	2485	2455	2426	2396	2359	2321	2298	2283	2260	2212	2157	2088	2010	1943	1903	1878	1866	1867	1881	1904	1939	1990	2054	2123	2196	2266	2319	2355	2387	2414	2438	2455	2461	2463	2464	2463	2469	2488	2511	2536	2562	2600	2655	2693	2659	2613	2601	2618	2636	2629	2624	2645	2688	2714	2690	2654	2608	2553	2506	2480	2459	2439	2417	2392	2362	2328	2286	2242	2200	2157	2114	2085	2073	2066	2063	2071	2093	2127	2171	2225	2282	2338	2390	2439	2484	2523	2552	2570	2585	2612	2634	2633	2619	2607	2602	2602	2617	2641	2660	2684	2702	2695	2662	2624	2589	2556	2519	2479	2441	2400	2361	2324	2294	2272	2273	2279	2288	2301	2322	2373	2442	2529	2638	2727	2700	2645
2560	2513	2481	2454	2429	2404	2380	2357	2339	2327	2306	2254	2192	2120	2040	1969	1921	1889	1871	1870	1880	1898	1929	1979	2045	2115	2182	2245	2292	2326	2354	2374	2391	2403	2406	2408	2417	2427	2442	2464	2491	2523	2557	2606	2676	2730	2713	2685	2679	2695	2710	2689	2666	2674	2706	2720	2693	2651	2604	2558	2518	2489	2465	2443	2421	2400	2378	2352	2320	2283	2245	2206	2168	2133	2105	2084	2072	2073	2089	2118	2156	2204	2257	2311	2362	2412	2461	2505	2541	2570	2592	2615	2631	2623	2595	2573	2565	2563	2577	2606	2628	2656	2677	2677	2654	2622	2583	2540	2495	2450	2408	2371	2339	2312	2291	2279	2290	2307	2325	2345	2374	2428	2495	2571	2662	2737	2715	2668
2568	2522	2491	2466	2442	2418	2407	2401	2386	2372	2352	2293	2223	2148	2066	1992	1939	1899	1877	1873	1881	1894	1919	1966	2035	2106	2165	2217	2258	2291	2317	2332	2342	2351	2354	2357	2377	2403	2426	2449	2477	2512	2550	2606	2689	2756	2756	2748	2750	2766	2783	2749	2705	2704	2726	2731	2698	2647	2600	2567	2536	2503	2475	2452	2430	2412	2398	2382	2357	2328	2294	2260	2227	2186	2139	2101	2083	2077	2087	2111	2145	2188	2236	2287	2338	2386	2439	2489	2531	2571	2604	2620	2631	2617	2573	2540	2534	2531	2545	2579	2606	2633	2654	2658	2646	2623	2577	2525	2475	2425	2381	2352	2329	2313	2302	2299	2319	2345	2369	2393	2425	2475	2534	2600	2670	2730	2717	2685
2605	2558	2526	2498	2477	2455	2439	2427	2409	2391	2367	2307	2235	2159	2080	2011	1955	1911	1887	1879	1884	1893	1912	1954	2019	2086	2136	2180	2217	2246	2269	2284	2295	2307	2314	2324	2352	2387	2418	2446	2478	2509	2545	2599	2678	2741	2750	2751	2760	2784	2808	2784	2751	2750	2769	2776	2738	2684	2634	2600	2560	2526	2497	2475	2455	2438	2432	2423	2406	2380	2346	2309	2273	2223	2166	2121	2095	2084	2088	2108	2138	2177	2221	2267	2314	2361	2408	2455	2493	2532	2563	2578	2586	2578	2543	2515	2517	2520	2534	2562	2586	2607	2624	2627	2619	2599	2556	2505	2455	2406	2364	2346	2335	2332	2332	2337	2360	2389	2415	2440	2468	2510	2560	2615	2673	2720	2724	2711
2657	2610	2572	2546	2537	2521	2481	2435	2406	2382	2350	2291	2223	2152	2088	2029	1972	1925	1898	1889	1891	1893	1905	1940	2001	2061	2101	2135	2166	2188	2206	2227	2247	2266	2285	2305	2338	2376	2414	2454	2493	2518	2543	2584	2631	2672	2686	2694	2710	2742	2774	2790	2808	2824	2842	2853	2811	2750	2697	2650	2598	2564	2536	2514	2495	2480	2482	2483	2469	2436	2395	2355	2312	2253	2188	2137	2107	2092	2093	2109	2135	2171	2211	2251	2295	2338	2371	2401	2430	2454	2473	2488	2497	2500	2500	2499	2518	2542	2555	2557	2562	2574	2582	2581	2574	2556	2521	2480	2435	2390	2355	2351	2359	2369	2380	2395	2417	2441	2465	2484	2504	2539	2579	2621	2657	2690	2727	2764
2703	2661	2623	2599	2596	2586	2524	2454	2412	2381	2342	2282	2216	2150	2096	2047	1989	1940	1909	1898	1897	1895	1899	1928	1983	2035	2064	2089	2112	2130	2145	2172	2198	2222	2248	2280	2316	2358	2403	2450	2493	2512	2530	2556	2579	2599	2616	2628	2652	2691	2729	2780	2837	2873	2896	2912	2875	2815	2764	2712	2657	2623	2593	2568	2548	2536	2542	2552	2537	2496	2451	2403	2354	2288	2215	2153	2120	2103	2102	2115	2137	2167	2203	2238	2276	2314	2334	2351	2370	2384	2396	2414	2424	2439	2465	2488	2521	2562	2577	2559	2547	2548	2546	2541	2536	2521	2493	2459	2419	2379	2350	2362	2386	2409	2431	2455	2477	2498	2519	2532	2546	2571	2602	2630	2646	2665	2730	2804
2750	2719	2688	2662	2648	2630	2571	2509	2467	2438	2400	2327	2245	2172	2114	2060	2003	1955	1920	1906	1904	1902	1906	1926	1958	1988	2011	2031	2052	2069	2085	2109	2134	2158	2188	2222	2258	2300	2347	2399	2447	2473	2495	2523	2548	2570	2585	2597	2619	2652	2686	2735	2788	2829	2866	2898	2897	2881	2857	2814	2767	2727	2690	2662	2648	2641	2637	2634	2618	2586	2544	2474	2397	2318	2244	2181	2145	2124	2120	2133	2152	2170	2193	2219	2249	2282	2306	2330	2354	2375	2395	2412	2425	2444	2472	2496	2526	2556	2568	2556	2545	2541	2535	2528	2519	2505	2481	2450	2414	2376	2351	2374	2411	2445	2477	2510	2542	2573	2597	2613	2627	2633	2638	2649	2657	2668	2723	2787
2798	2778	2752	2722	2692	2662	2611	2561	2523	2499	2468	2378	2277	2197	2133	2074	2020	1972	1935	1919	1916	1917	1924	1935	1942	1951	1968	1986	2005	2023	2038	2058	2077	2098	2129	2163	2196	2234	2282	2337	2389	2423	2455	2486	2518	2545	2559	2572	2590	2611	2638	2678	2718	2762	2809	2851	2895	2937	2939	2906	2867	2822	2776	2744	2739	2737	2719	2697	2680	2666	2634	2539	2428	2341	2272	2210	2172	2147	2141	2156	2175	2180	2186	2204	2227	2254	2287	2322	2353	2385	2415	2433	2448	2469	2496	2521	2542	2554	2562	2561	2553	2545	2538	2528	2515	2500	2479	2452	2417	2378	2353	2384	2434	2476	2513	2552	2593	2636	2666	2688	2707	2693	2671	2668	2667	2672	2713	2756
2857	2832	2798	2761	2723	2686	2631	2579	2536	2514	2486	2397	2296	2220	2160	2103	2047	1996	1960	1942	1932	1937	1949	1955	1951	1956	1972	1987	1999	2013	2022	2034	2047	2065	2089	2115	2142	2176	2223	2280	2336	2376	2412	2446	2478	2507	2522	2536	2552	2569	2594	2630	2666	2709	2757	2798	2866	2931	2952	2932	2902	2852	2799	2763	2753	2749	2730	2706	2690	2680	2652	2556	2444	2361	2297	2240	2200	2174	2166	2178	2194	2192	2191	2204	2226	2252	2288	2325	2360	2396	2431	2451	2472	2497	2526	2556	2578	2588	2591	2589	2574	2560	2547	2536	2522	2508	2490	2466	2431	2391	2365	2394	2442	2485	2522	2559	2601	2645	2677	2704	2728	2716	2694	2685	2682	2687	2718	2753
2934	2891	2827	2775	2733	2691	2623	2554	2507	2486	2459	2384	2302	2237	2192	2146	2088	2031	1992	1964	1945	1966	2001	2009	1993	1994	2010	2025	2034	2047	2050	2052	2054	2062	2068	2078	2101	2133	2177	2233	2290	2331	2369	2404	2435	2462	2479	2495	2513	2535	2563	2597	2633	2671	2706	2743	2812	2874	2905	2905	2884	2828	2766	2720	2695	2678	2667	2658	2645	2634	2607	2529	2444	2374	2319	2272	2232	2202	2192	2198	2207	2205	2204	2216	2243	2273	2304	2335	2368	2403	2438	2466	2496	2528	2561	2597	2625	2642	2645	2637	2616	2590	2563	2548	2538	2527	2513	2494	2460	2418	2390	2407	2438	2473	2502	2530	2566	2602	2633	2663	2688	2698	2705	2707	2710	2720	2741	2766
2993	2932	2846	2778	2729	2675	2599	2520	2474	2456	2429	2369	2303	2253	2223	2193	2137	2077	2034	1998	1974	2008	2061	2074	2051	2045	2067	2084	2095	2105	2104	2093	2083	2076	2067	2062	2077	2104	2141	2193	2248	2290	2330	2365	2395	2422	2441	2460	2481	2509	2540	2574	2611	2642	2668	2700	2771	2832	2870	2882	2866	2801	2730	2678	2640	2611	2602	2598	2590	2579	2556	2495	2430	2371	2329	2297	2259	2229	2219	2221	2228	2225	2224	2234	2263	2296	2321	2346	2379	2413	2446	2482	2520	2557	2597	2637	2673	2697	2702	2690	2665	2629	2590	2569	2561	2553	2542	2528	2494	2450	2418	2423	2440	2463	2483	2503	2528	2556	2588	2620	2647	2675	2704	2719	2730	2747	2757	2773
2973	2908	2817	2748	2698	2645	2575	2505	2463	2441	2415	2369	2320	2284	2262	2241	2199	2154	2114	2083	2060	2068	2092	2107	2113	2131	2171	2207	2214	2194	2165	2145	2128	2111	2092	2077	2077	2088	2114	2159	2209	2252	2293	2333	2367	2398	2418	2437	2461	2493	2529	2568	2607	2646	2680	2719	2803	2882	2928	2944	2933	2862	2781	2721	2678	2640	2618	2598	2574	2549	2517	2461	2403	2356	2325	2303	2274	2251	2248	2257	2268	2261	2253	2257	2280	2304	2327	2353	2385	2417	2451	2489	2530	2571	2619	2669	2719	2756	2764	2739	2702	2664	2627	2607	2603	2597	2583	2564	2530	2486	2453	2458	2475	2493	2507	2521	2535	2551	2576	2606	2634	2663	2690	2709	2728	2749	2762	2778
2942	2872	2775	2706	2662	2612	2552	2496	2457	2431	2405	2373	2344	2321	2302	2285	2261	2233	2197	2173	2155	2128	2107	2123	2167	2213	2277	2340	2346	2286	2227	2205	2184	2159	2134	2110	2093	2084	2097	2135	2179	2220	2262	2305	2346	2383	2403	2421	2451	2489	2533	2578	2620	2665	2708	2750	2847	2947	2998	3014	3007	2928	2835	2770	2725	2683	2646	2608	2569	2525	2479	2427	2376	2337	2319	2306	2286	2273	2276	2296	2314	2301	2284	2283	2297	2314	2335	2361	2390	2420	2453	2492	2533	2576	2631	2690	2755	2810	2821	2781	2731	2695	2662	2644	2645	2644	2624	2598	2564	2521	2487	2495	2517	2532	2542	2552	2554	2555	2574	2602	2631	2655	2676	2697	2723	2748	2765	2783
2902	2834	2745	2685	2643	2596	2541	2489	2447	2421	2403	2382	2365	2355	2348	2341	2322	2297	2255	2220	2193	2154	2124	2141	2197	2251	2326	2400	2417	2357	2299	2278	2255	2220	2187	2155	2124	2101	2103	2127	2157	2194	2236	2279	2323	2367	2393	2419	2460	2510	2564	2621	2672	2719	2760	2800	2876	2961	3002	3011	3003	2931	2843	2779	2735	2693	2651	2606	2559	2505	2450	2403	2360	2331	2319	2312	2299	2293	2302	2325	2346	2335	2318	2314	2321	2330	2347	2369	2394	2422	2456	2491	2529	2573	2628	2683	2758	2826	2845	2806	2757	2719	2685	2665	2667	2668	2647	2620	2588	2551	2523	2530	2548	2559	2566	2574	2571	2568	2581	2608	2635	2657	2676	2699	2725	2749	2768	2788
2841	2796	2744	2697	2644	2589	2537	2488	2445	2420	2406	2390	2380	2382	2398	2407	2383	2347	2293	2226	2174	2140	2123	2143	2195	2251	2329	2401	2431	2403	2367	2353	2334	2295	2257	2218	2175	2141	2128	2127	2137	2171	2214	2256	2299	2345	2382	2423	2477	2546	2615	2687	2757	2804	2833	2860	2891	2918	2934	2925	2905	2857	2798	2747	2715	2679	2638	2592	2542	2486	2430	2390	2361	2338	2325	2319	2314	2316	2329	2348	2366	2365	2360	2355	2352	2352	2362	2377	2399	2430	2464	2493	2522	2559	2600	2645	2734	2821	2850	2814	2770	2731	2697	2675	2670	2665	2649	2628	2601	2578	2562	2560	2565	2572	2579	2587	2584	2583	2596	2623	2651	2670	2688	2708	2730	2751	2772	2793
2787	2770	2750	2712	2652	2595	2548	2502	2460	2432	2414	2402	2396	2405	2435	2454	2420	2377	2316	2228	2151	2120	2110	2128	2180	2250	2333	2408	2448	2445	2429	2422	2410	2377	2332	2285	2231	2186	2157	2136	2130	2157	2198	2238	2279	2326	2374	2425	2490	2571	2653	2735	2816	2859	2874	2889	2881	2866	2863	2846	2813	2789	2754	2720	2700	2679	2636	2588	2533	2475	2421	2386	2365	2348	2335	2330	2332	2341	2358	2377	2394	2404	2408	2402	2391	2385	2387	2396	2414	2445	2477	2496	2517	2544	2572	2611	2708	2810	2848	2817	2776	2744	2712	2690	2679	2671	2656	2639	2617	2603	2597	2587	2582	2586	2594	2600	2597	2598	2612	2641	2671	2687	2701	2718	2737	2757	2779	2800
2744	2741	2741	2730	2711	2681	2623	2560	2511	2478	2453	2437	2427	2426	2443	2448	2413	2365	2305	2221	2150	2122	2116	2137	2188	2256	2341	2425	2490	2531	2551	2542	2516	2466	2400	2335	2276	2227	2192	2165	2150	2160	2184	2217	2262	2314	2362	2414	2478	2556	2632	2702	2766	2800	2813	2823	2811	2798	2812	2823	2823	2822	2810	2788	2766	2741	2694	2641	2573	2497	2430	2390	2365	2347	2338	2338	2348	2365	2393	2423	2452	2466	2472	2469	2458	2448	2442	2442	2451	2474	2498	2513	2528	2547	2568	2598	2677	2762	2813	2823	2821	2792	2757	2737	2738	2738	2710	2677	2651	2636	2626	2615	2607	2607	2612	2615	2611	2612	2628	2653	2680	2694	2708	2723	2744	2768	2788	2808
2689	2707	2729	2744	2777	2782	2705	2615	2558	2521	2488	2465	2446	2436	2432	2424	2386	2339	2281	2209	2147	2127	2128	2152	2199	2262	2349	2438	2523	2615	2674	2655	2609	2545	2455	2371	2313	2265	2227	2198	2178	2170	2173	2198	2248	2304	2349	2397	2457	2528	2596	2648	2688	2714	2729	2739	2732	2729	2760	2813	2847	2870	2886	2872	2840	2807	2757	2700	2622	2523	2441	2399	2369	2351	2347	2351	2368	2396	2432	2476	2516	2534	2543	2542	2534	2522	2507	2496	2498	2511	2527	2538	2549	2561	2574	2599	2655	2713	2775	2837	2873	2846	2804	2786	2805	2817	2769	2713	2681	2666	2653	2642	2632	2629	2630	2631	2628	2631	2647	2667	2689	2704	2717	2731	2755	2781	2800	2818
2653	2694	2736	2765	2799	2801	2725	2636	2577	2535	2494	2460	2433	2413	2397	2379	2344	2301	2251	2193	2145	2132	2140	2169	2215	2278	2359	2444	2534	2641	2713	2690	2638	2570	2477	2393	2342	2298	2259	2228	2204	2184	2174	2191	2237	2288	2331	2377	2432	2495	2554	2594	2623	2648	2663	2671	2675	2683	2729	2805	2868	2893	2908	2897	2866	2832	2776	2715	2638	2542	2463	2423	2395	2378	2374	2381	2405	2438	2477	2526	2569	2592	2607	2612	2604	2591	2569	2551	2546	2554	2567	2573	2580	2585	2593	2615	2658	2708	2777	2860	2917	2890	2845	2823	2837	2843	2791	2732	2700	2688	2678	2666	2655	2649	2649	2650	2649	2654	2671	2696	2721	2730	2738	2749	2771	2793	2810	2826
2643	2703	2770	2793	2775	2739	2683	2622	2567	2517	2471	2430	2394	2364	2335	2309	2281	2251	2217	2184	2156	2151	2163	2195	2242	2304	2370	2434	2515	2616	2682	2659	2606	2541	2464	2396	2355	2324	2290	2261	2235	2204	2183	2190	2227	2271	2315	2364	2415	2465	2513	2550	2579	2603	2613	2621	2637	2661	2720	2819	2900	2896	2867	2848	2838	2817	2753	2679	2611	2549	2494	2462	2443	2428	2420	2426	2452	2485	2525	2572	2613	2643	2666	2676	2667	2652	2627	2604	2595	2603	2615	2616	2616	2619	2631	2653	2686	2725	2796	2897	2966	2935	2880	2847	2830	2814	2773	2730	2705	2701	2698	2687	2675	2669	2668	2670	2670	2676	2699	2743	2782	2777	2765	2770	2789	2808	2822	2834
2632	2703	2784	2805	2750	2684	2640	2594	2537	2484	2439	2392	2351	2313	2276	2243	2227	2211	2196	2185	2179	2183	2202	2237	2284	2342	2389	2435	2507	2599	2658	2628	2571	2506	2443	2390	2363	2343	2320	2294	2267	2227	2193	2191	2220	2258	2301	2351	2399	2441	2482	2517	2548	2570	2580	2591	2618	2653	2721	2832	2926	2896	2833	2802	2805	2789	2723	2644	2587	2552	2519	2495	2486	2477	2466	2471	2502	2536	2577	2621	2659	2694	2724	2736	2728	2715	2688	2662	2652	2661	2671	2666	2661	2664	2679	2703	2720	2748	2820	2933	3015	2973	2906	2858	2821	2789	2757	2726	2706	2709	2718	2707	2696	2690	2689	2691	2693	2699	2728	2786	2835	2821	2795	2794	2812	2827	2839	2849
2635	2707	2780	2790	2728	2661	2616	2572	2515	2458	2408	2359	2316	2278	2243	2218	2214	2214	2217	2228	2240	2252	2274	2317	2380	2450	2493	2529	2581	2638	2660	2613	2545	2483	2436	2400	2386	2378	2359	2328	2298	2254	2217	2204	2218	2243	2283	2332	2379	2421	2463	2499	2533	2564	2590	2617	2644	2677	2740	2845	2928	2898	2837	2801	2790	2768	2706	2636	2590	2565	2540	2516	2501	2495	2498	2518	2559	2603	2645	2681	2709	2745	2778	2797	2804	2803	2771	2736	2726	2732	2735	2726	2719	2719	2733	2758	2768	2786	2845	2941	3007	2967	2901	2856	2828	2806	2774	2745	2728	2731	2738	2730	2721	2716	2713	2713	2714	2723	2749	2797	2840	2836	2823	2824	2839	2853	2866	2879
2642	2711	2775	2774	2702	2629	2587	2550	2495	2432	2377	2329	2288	2253	2223	2205	2216	2232	2251	2285	2316	2329	2350	2401	2486	2572	2612	2639	2673	2690	2679	2613	2527	2466	2435	2413	2413	2418	2401	2364	2327	2283	2244	2222	2218	2229	2266	2317	2364	2406	2450	2491	2531	2572	2619	2663	2689	2712	2771	2865	2936	2905	2848	2806	2782	2752	2694	2632	2593	2579	2565	2535	2508	2504	2524	2559	2612	2668	2710	2734	2753	2786	2820	2847	2873	2889	2852	2808	2797	2803	2802	2791	2783	2782	2795	2819	2824	2831	2878	2951	3000	2959	2898	2855	2840	2829	2798	2769	2754	2755	2759	2753	2748	2743	2736	2733	2736	2747	2770	2802	2835	2846	2852	2857	2868	2882	2898	2916
2669	2718	2759	2739	2666	2589	2546	2510	2461	2400	2348	2307	2272	2245	2225	2215	2237	2266	2296	2335	2371	2387	2411	2466	2557	2647	2699	2732	2754	2748	2714	2632	2538	2478	2456	2442	2444	2450	2433	2396	2357	2311	2269	2239	2223	2224	2256	2303	2350	2396	2447	2496	2545	2602	2663	2719	2745	2769	2824	2903	2956	2918	2856	2803	2770	2737	2685	2631	2599	2590	2584	2553	2524	2522	2549	2587	2649	2714	2755	2768	2780	2807	2838	2866	2900	2924	2902	2871	2869	2880	2885	2865	2848	2846	2865	2892	2897	2903	2940	2997	3033	2986	2920	2874	2860	2848	2818	2791	2777	2776	2777	2769	2764	2761	2756	2756	2756	2764	2785	2817	2847	2865	2878	2887	2899	2913	2930	2951
2720	2725	2707	2672	2618	2555	2504	2458	2411	2362	2323	2291	2266	2249	2245	2248	2281	2322	2354	2374	2398	2419	2448	2503	2583	2666	2747	2813	2834	2809	2759	2663	2563	2506	2494	2488	2481	2470	2451	2421	2386	2341	2297	2262	2235	2225	2247	2285	2332	2391	2453	2509	2566	2635	2717	2785	2822	2858	2903	2940	2963	2924	2864	2804	2753	2709	2671	2638	2614	2606	2599	2569	2543	2542	2566	2602	2676	2755	2794	2785	2780	2798	2820	2845	2878	2903	2915	2927	2943	2967	2984	2941	2891	2887	2931	2974	2989	3006	3037	3074	3096	3034	2952	2902	2885	2868	2839	2811	2795	2792	2792	2782	2775	2776	2778	2783	2779	2776	2796	2839	2876	2895	2910	2921	2930	2941	2959	2984
2759	2725	2663	2612	2571	2517	2462	2412	2369	2332	2301	2282	2268	2265	2274	2290	2329	2378	2409	2415	2425	2450	2482	2537	2610	2687	2788	2876	2898	2859	2798	2694	2589	2534	2531	2539	2522	2497	2473	2448	2415	2372	2329	2289	2253	2232	2246	2275	2323	2389	2458	2518	2580	2660	2755	2838	2882	2925	2959	2967	2964	2927	2871	2806	2743	2688	2665	2648	2634	2627	2620	2587	2559	2555	2577	2617	2696	2784	2817	2791	2769	2780	2795	2821	2852	2880	2920	2963	2994	3029	3055	2996	2923	2919	2981	3037	3060	3083	3107	3130	3138	3070	2980	2929	2912	2891	2861	2832	2814	2809	2808	2802	2798	2803	2813	2823	2819	2810	2827	2874	2917	2933	2949	2960	2962	2968	2986	3015
2751	2707	2635	2580	2536	2483	2425	2371	2336	2319	2309	2306	2307	2313	2321	2336	2372	2416	2442	2454	2472	2500	2534	2590	2659	2723	2824	2913	2931	2875	2801	2701	2608	2561	2566	2579	2562	2537	2506	2477	2447	2407	2367	2328	2290	2264	2269	2290	2330	2389	2452	2513	2578	2652	2736	2810	2845	2874	2911	2943	2958	2923	2868	2809	2757	2713	2696	2686	2675	2665	2652	2617	2589	2581	2595	2627	2692	2762	2793	2788	2783	2792	2804	2824	2849	2875	2914	2953	2985	3021	3044	2999	2945	2940	2980	3018	3039	3057	3070	3082	3088	3043	2986	2952	2936	2914	2883	2852	2833	2826	2827	2827	2832	2858	2900	2935	2941	2939	2950	2977	3002	3005	3007	3009	3009	3012	3015	3024
2739	2684	2603	2546	2505	2457	2395	2331	2303	2314	2326	2336	2353	2366	2369	2381	2414	2449	2475	2496	2524	2557	2594	2648	2709	2763	2858	2949	2960	2878	2786	2700	2626	2589	2600	2618	2602	2576	2541	2507	2476	2441	2407	2370	2332	2302	2299	2310	2342	2390	2445	2504	2569	2637	2704	2769	2791	2802	2844	2912	2951	2919	2867	2815	2775	2741	2729	2726	2716	2698	2676	2641	2615	2603	2604	2629	2677	2724	2757	2781	2796	2806	2817	2834	2851	2872	2904	2933	2963	2996	3013	2985	2956	2949	2959	2976	2991	3004	3010	3009	3010	2999	2987	2972	2961	2942	2908	2876	2856	2847	2849	2856	2868	2912	2993	3055	3066	3071	3073	3072	3076	3064	3048	3042	3042	3045	3028	3009
2694	2642	2566	2509	2472	2434	2374	2314	2291	2306	2324	2343	2369	2388	2397	2418	2452	2487	2521	2549	2575	2625	2672	2719	2764	2809	2885	2959	2963	2886	2800	2721	2653	2624	2643	2663	2637	2603	2563	2526	2495	2468	2441	2409	2372	2341	2330	2333	2353	2392	2439	2493	2554	2617	2680	2741	2770	2786	2833	2909	2958	2927	2876	2826	2788	2754	2744	2740	2726	2700	2669	2629	2598	2584	2588	2615	2657	2698	2736	2771	2793	2806	2820	2838	2855	2877	2908	2934	2961	2985	2991	2968	2944	2931	2931	2943	2950	2957	2961	2960	2956	2971	2986	2990	2984	2976	2943	2909	2888	2883	2889	2908	2928	2974	3055	3116	3117	3113	3106	3091	3079	3058	3036	3027	3030	3034	3011	2986
2606	2574	2530	2484	2448	2412	2364	2321	2299	2294	2300	2325	2357	2386	2416	2453	2490	2527	2568	2597	2620	2698	2780	2822	2839	2862	2896	2923	2924	2898	2854	2766	2680	2656	2694	2723	2677	2614	2566	2529	2498	2483	2471	2447	2413	2384	2365	2357	2368	2398	2437	2483	2535	2596	2665	2730	2777	2821	2877	2945	2991	2953	2889	2837	2796	2759	2743	2727	2705	2675	2639	2584	2535	2524	2557	2601	2640	2678	2719	2757	2783	2802	2820	2843	2865	2890	2929	2966	2984	2982	2972	2949	2927	2912	2912	2920	2921	2921	2925	2923	2921	2962	3014	3032	3017	3005	2977	2945	2926	2931	2944	2973	3006	3041	3089	3123	3100	3065	3045	3024	3004	2981	2962	2958	2975	2988	2973	2958
2533	2518	2496	2461	2429	2397	2359	2328	2305	2287	2287	2317	2354	2392	2440	2487	2537	2580	2627	2656	2684	2773	2875	2908	2895	2896	2895	2885	2881	2894	2878	2792	2699	2682	2735	2771	2709	2625	2569	2533	2501	2500	2501	2486	2457	2428	2403	2386	2388	2409	2442	2480	2523	2584	2657	2723	2780	2842	2905	2970	3018	2976	2904	2846	2806	2768	2745	2719	2688	2654	2613	2547	2484	2478	2531	2589	2623	2660	2705	2747	2782	2805	2827	2852	2879	2908	2952	2995	3005	2981	2956	2935	2914	2897	2895	2896	2894	2892	2892	2888	2891	2955	3038	3074	3054	3035	3017	2990	2976	2985	3001	3027	3061	3084	3102	3112	3065	3005	2966	2942	2915	2895	2878	2883	2911	2933	2921	2912
2522	2506	2488	2455	2414	2376	2350	2332	2315	2302	2306	2337	2378	2422	2476	2537	2615	2691	2758	2803	2833	2880	2924	2922	2888	2865	2848	2830	2822	2832	2823	2769	2713	2705	2736	2756	2702	2631	2578	2544	2517	2524	2533	2528	2505	2478	2454	2436	2432	2439	2460	2494	2535	2585	2639	2688	2738	2792	2850	2914	2967	2946	2901	2863	2832	2797	2781	2763	2729	2679	2628	2566	2514	2503	2542	2590	2630	2672	2720	2765	2804	2826	2845	2876	2917	2956	2987	3010	3010	2985	2957	2935	2913	2893	2881	2874	2873	2873	2872	2868	2874	2926	2991	3048	3085	3112	3107	3087	3072	3076	3079	3093	3110	3104	3073	3043	3000	2955	2924	2904	2883	2862	2846	2849	2877	2900	2887	2872
2522	2507	2495	2462	2404	2356	2345	2345	2336	2327	2335	2367	2410	2459	2515	2582	2691	2803	2885	2948	2986	2975	2943	2909	2857	2813	2786	2762	2753	2758	2752	2736	2728	2728	2731	2732	2693	2642	2595	2564	2542	2555	2572	2573	2557	2532	2508	2494	2483	2474	2482	2516	2560	2600	2626	2656	2696	2738	2791	2853	2906	2914	2904	2884	2863	2833	2824	2820	2782	2710	2644	2592	2555	2541	2557	2592	2635	2683	2733	2781	2824	2843	2856	2891	2951	3001	3014	3012	3003	2980	2951	2929	2911	2889	2864	2848	2850	2856	2855	2853	2863	2894	2930	3004	3113	3190	3193	3176	3158	3149	3140	3138	3139	3107	3019	2947	2922	2908	2889	2876	2862	2841	2822	2822	2849	2872	2854	2833
2516	2502	2493	2467	2414	2369	2365	2371	2366	2362	2370	2403	2448	2505	2563	2631	2751	2871	2945	2997	3032	2989	2929	2878	2819	2760	2730	2706	2703	2710	2713	2718	2728	2738	2742	2746	2718	2677	2636	2607	2591	2609	2631	2632	2614	2586	2556	2535	2520	2509	2514	2545	2587	2618	2637	2663	2695	2730	2784	2847	2895	2922	2932	2922	2902	2879	2860	2845	2801	2727	2658	2604	2566	2546	2553	2581	2623	2671	2720	2770	2815	2832	2845	2882	2944	2995	3000	2989	2973	2950	2922	2899	2880	2859	2834	2820	2826	2835	2832	2829	2846	2885	2924	3009	3133	3216	3218	3200	3177	3151	3125	3107	3094	3053	2960	2880	2868	2866	2858	2854	2852	2828	2804	2797	2813	2825	2810	2789
2511	2492	2477	2460	2439	2416	2409	2407	2404	2403	2414	2449	2496	2553	2605	2666	2782	2897	2955	2971	2975	2926	2863	2810	2761	2713	2693	2683	2683	2686	2691	2707	2729	2749	2769	2785	2768	2742	2709	2673	2652	2676	2705	2704	2676	2640	2595	2555	2537	2539	2552	2581	2618	2648	2680	2715	2738	2761	2814	2880	2929	2970	2999	2991	2958	2925	2878	2825	2773	2720	2664	2602	2552	2526	2524	2545	2584	2634	2684	2733	2777	2797	2815	2851	2899	2939	2945	2936	2919	2900	2877	2850	2824	2804	2793	2790	2797	2809	2809	2809	2830	2887	2953	3040	3146	3212	3205	3174	3136	3078	3027	2998	2972	2937	2888	2842	2834	2839	2839	2848	2856	2827	2792	2772	2763	2754	2745	2737
2511	2492	2476	2466	2466	2464	2454	2448	2449	2451	2462	2501	2550	2600	2642	2695	2794	2899	2947	2934	2905	2853	2788	2733	2697	2668	2660	2662	2663	2662	2671	2698	2731	2761	2790	2809	2806	2797	2774	2735	2709	2737	2770	2768	2731	2689	2633	2581	2559	2569	2591	2622	2656	2693	2734	2771	2790	2805	2851	2914	2968	3012	3053	3044	2996	2948	2882	2802	2741	2701	2651	2586	2530	2500	2491	2501	2542	2594	2648	2697	2738	2761	2783	2818	2858	2891	2894	2884	2864	2847	2830	2800	2771	2753	2751	2756	2768	2784	2795	2803	2821	2888	2966	3053	3144	3206	3181	3133	3070	2990	2921	2892	2861	2831	2813	2797	2796	2809	2826	2845	2855	2824	2782	2751	2723	2696	2692	2691
2521	2509	2503	2501	2505	2506	2494	2486	2488	2496	2516	2556	2604	2656	2710	2762	2824	2880	2898	2876	2843	2793	2737	2692	2664	2643	2640	2644	2647	2647	2655	2682	2713	2742	2770	2791	2798	2799	2789	2769	2756	2780	2808	2802	2764	2719	2665	2616	2598	2614	2642	2669	2698	2733	2771	2804	2837	2870	2911	2959	2999	3012	3016	2994	2954	2912	2848	2776	2716	2671	2618	2555	2501	2472	2465	2479	2524	2579	2637	2690	2736	2762	2785	2824	2874	2912	2898	2869	2841	2824	2806	2774	2743	2725	2723	2729	2751	2776	2794	2803	2825	2914	3013	3085	3123	3138	3106	3056	2997	2931	2874	2843	2816	2792	2782	2772	2769	2775	2790	2812	2827	2812	2786	2758	2719	2682	2672	2668
2535	2532	2538	2542	2549	2553	2538	2523	2527	2546	2573	2613	2657	2711	2781	2838	2853	2848	2841	2814	2776	2734	2692	2656	2636	2622	2621	2626	2629	2628	2635	2658	2685	2711	2734	2754	2769	2779	2782	2785	2788	2808	2828	2822	2783	2738	2690	2649	2638	2663	2699	2722	2741	2772	2803	2828	2876	2930	2964	2990	3016	2989	2944	2912	2889	2857	2803	2743	2687	2638	2583	2523	2472	2445	2442	2460	2510	2571	2632	2689	2739	2767	2790	2832	2897	2944	2909	2854	2819	2804	2786	2751	2717	2699	2696	2704	2735	2771	2794	2801	2821	2935	3066	3124	3092	3054	3022	2980	2928	2885	2845	2815	2790	2771	2767	2762	2749	2739	2751	2775	2795	2800	2798	2772	2721	2675	2661	2653
2557	2557	2568	2578	2588	2598	2586	2573	2579	2604	2640	2684	2726	2770	2828	2869	2854	2822	2797	2762	2717	2681	2647	2619	2602	2593	2591	2596	2597	2596	2600	2619	2643	2666	2687	2708	2731	2749	2760	2771	2782	2802	2822	2823	2792	2756	2716	2682	2681	2715	2756	2779	2799	2828	2853	2871	2900	2936	2946	2956	2967	2928	2872	2841	2825	2798	2758	2710	2662	2613	2561	2500	2450	2423	2425	2449	2501	2565	2627	2684	2735	2764	2788	2826	2887	2929	2889	2828	2791	2774	2752	2717	2685	2670	2669	2682	2719	2760	2785	2792	2814	2931	3062	3110	3061	3006	2974	2935	2893	2861	2829	2799	2775	2759	2755	2754	2734	2718	2725	2749	2769	2784	2791	2766	2714	2666	2647	2635
2586	2586	2596	2608	2621	2633	2629	2626	2640	2676	2721	2765	2804	2834	2857	2866	2834	2788	2752	2715	2670	2637	2607	2582	2567	2559	2553	2552	2553	2552	2555	2571	2591	2612	2633	2655	2684	2711	2726	2735	2745	2767	2787	2796	2789	2773	2740	2713	2719	2763	2809	2842	2873	2902	2918	2925	2909	2886	2869	2861	2857	2829	2796	2772	2760	2741	2722	2697	2657	2600	2542	2482	2433	2409	2416	2445	2496	2557	2618	2672	2719	2748	2772	2803	2844	2870	2836	2785	2749	2727	2704	2672	2646	2636	2640	2659	2699	2742	2769	2780	2803	2903	3006	3051	3028	2991	2956	2918	2883	2860	2832	2803	2778	2759	2747	2741	2721	2705	2709	2728	2745	2762	2770	2750	2702	2656	2632	2614
2616	2617	2625	2637	2652	2668	2669	2674	2698	2746	2795	2834	2866	2884	2882	2867	2818	2757	2706	2669	2631	2599	2572	2549	2535	2526	2518	2513	2512	2511	2513	2527	2544	2561	2581	2600	2632	2664	2684	2692	2702	2724	2745	2760	2772	2775	2751	2730	2745	2795	2848	2890	2930	2951	2957	2953	2900	2835	2798	2777	2749	2732	2717	2703	2697	2693	2691	2684	2649	2586	2524	2465	2417	2396	2407	2439	2491	2550	2609	2659	2701	2727	2748	2774	2800	2812	2781	2736	2698	2676	2656	2627	2606	2600	2610	2634	2678	2724	2748	2759	2788	2878	2964	3005	2999	2968	2939	2906	2886	2869	2845	2813	2784	2761	2743	2731	2711	2695	2695	2708	2726	2744	2756	2741	2698	2653	2628	2606
2646	2647	2652	2658	2676	2696	2700	2708	2740	2787	2832	2879	2917	2920	2891	2856	2806	2749	2698	2656	2613	2579	2551	2524	2504	2492	2487	2486	2489	2492	2495	2506	2516	2528	2540	2553	2584	2617	2637	2643	2652	2674	2698	2718	2737	2750	2741	2733	2747	2785	2829	2868	2903	2926	2941	2940	2879	2804	2762	2739	2711	2692	2675	2664	2658	2654	2656	2653	2622	2564	2504	2443	2395	2376	2393	2430	2484	2545	2604	2654	2694	2716	2732	2749	2765	2770	2742	2705	2667	2636	2608	2579	2559	2559	2579	2610	2660	2711	2739	2754	2785	2868	2949	2985	2975	2947	2931	2911	2898	2881	2853	2814	2775	2746	2729	2719	2702	2689	2691	2703	2718	2736	2749	2744	2718	2689	2664	2639
2676	2681	2682	2684	2702	2724	2731	2742	2775	2816	2853	2909	2961	2951	2886	2828	2784	2741	2692	2644	2599	2563	2532	2504	2477	2463	2463	2470	2478	2487	2494	2501	2505	2510	2513	2518	2547	2578	2596	2599	2604	2626	2650	2674	2697	2716	2722	2729	2743	2763	2795	2829	2854	2881	2915	2924	2857	2777	2731	2714	2693	2669	2647	2636	2626	2619	2625	2625	2596	2541	2484	2421	2371	2353	2376	2418	2474	2536	2594	2643	2681	2699	2711	2720	2724	2721	2700	2674	2637	2595	2560	2532	2513	2520	2549	2586	2642	2700	2731	2750	2782	2860	2935	2968	2954	2929	2926	2921	2914	2897	2867	2817	2764	2729	2714	2705	2692	2685	2687	2699	2714	2729	2744	2750	2746	2734	2712	2684
2736	2736	2730	2729	2740	2752	2766	2783	2818	2858	2890	2926	2958	2933	2858	2789	2750	2714	2669	2621	2574	2536	2505	2478	2455	2444	2454	2470	2487	2501	2513	2519	2521	2518	2514	2511	2534	2560	2572	2572	2573	2590	2611	2636	2662	2685	2699	2714	2729	2745	2772	2809	2839	2869	2900	2902	2840	2764	2714	2693	2674	2648	2626	2614	2606	2600	2605	2604	2577	2525	2470	2407	2355	2340	2363	2403	2458	2518	2571	2615	2649	2661	2667	2668	2665	2655	2638	2617	2585	2545	2513	2492	2481	2497	2534	2577	2627	2679	2712	2733	2764	2834	2905	2938	2928	2915	2931	2942	2937	2919	2886	2827	2765	2723	2703	2688	2679	2675	2679	2689	2703	2722	2740	2757	2771	2776	2758	2732
2849	2829	2787	2775	2779	2783	2804	2830	2869	2920	2954	2938	2903	2859	2798	2739	2705	2675	2634	2586	2539	2500	2470	2447	2432	2432	2456	2489	2515	2536	2552	2561	2564	2558	2545	2534	2545	2559	2565	2565	2566	2573	2585	2606	2632	2656	2677	2699	2716	2730	2755	2811	2868	2895	2888	2865	2821	2771	2723	2682	2648	2623	2603	2593	2595	2598	2594	2582	2555	2514	2467	2402	2345	2327	2349	2386	2435	2488	2535	2571	2598	2602	2598	2595	2586	2574	2559	2540	2515	2489	2470	2460	2461	2487	2540	2592	2623	2649	2674	2697	2727	2796	2864	2898	2897	2894	2935	2975	2977	2951	2911	2843	2771	2722	2689	2665	2660	2663	2667	2673	2685	2703	2723	2751	2790	2815	2801	2777
2937	2903	2838	2819	2822	2824	2847	2873	2907	2962	3001	2940	2854	2789	2737	2679	2653	2631	2597	2548	2502	2464	2437	2421	2415	2424	2464	2513	2553	2580	2602	2616	2622	2611	2590	2571	2570	2572	2572	2570	2568	2566	2568	2582	2606	2631	2657	2685	2707	2719	2738	2808	2885	2912	2877	2834	2805	2773	2725	2671	2629	2603	2582	2572	2580	2588	2575	2555	2528	2496	2454	2387	2326	2306	2325	2359	2400	2446	2486	2515	2537	2536	2526	2517	2506	2493	2484	2471	2456	2443	2433	2435	2447	2483	2546	2608	2621	2627	2645	2667	2697	2760	2826	2863	2869	2875	2934	2994	3004	2972	2925	2851	2772	2714	2674	2644	2642	2647	2651	2653	2662	2677	2695	2732	2790	2834	2823	2801
2886	2895	2884	2889	2882	2877	2901	2930	2946	2967	2977	2905	2813	2744	2693	2642	2620	2600	2566	2519	2473	2432	2402	2394	2405	2431	2483	2542	2593	2634	2668	2684	2688	2674	2647	2618	2608	2601	2593	2581	2570	2564	2562	2570	2590	2614	2639	2665	2687	2702	2723	2787	2851	2874	2850	2815	2785	2753	2711	2661	2621	2590	2564	2548	2548	2548	2530	2506	2475	2439	2397	2339	2286	2266	2278	2300	2334	2373	2406	2432	2453	2456	2453	2451	2449	2447	2442	2435	2428	2422	2418	2431	2453	2490	2546	2600	2613	2619	2639	2669	2702	2753	2804	2840	2853	2864	2924	2981	2983	2938	2886	2821	2756	2704	2662	2630	2626	2630	2631	2627	2629	2642	2661	2692	2739	2777	2773	2759
2801	2862	2928	2952	2929	2911	2941	2979	2980	2955	2932	2859	2770	2700	2656	2613	2593	2575	2541	2494	2450	2404	2368	2366	2399	2443	2504	2571	2633	2689	2735	2754	2755	2740	2708	2672	2653	2638	2622	2598	2578	2567	2562	2564	2581	2603	2624	2647	2668	2686	2708	2761	2808	2828	2818	2792	2761	2729	2691	2649	2610	2574	2542	2519	2511	2501	2477	2447	2414	2374	2332	2284	2244	2225	2227	2240	2266	2298	2326	2348	2369	2380	2387	2393	2406	2417	2418	2416	2416	2416	2418	2439	2469	2507	2552	2597	2610	2618	2640	2682	2723	2758	2789	2822	2841	2856	2912	2964	2957	2892	2826	2779	2738	2693	2649	2615	2610	2613	2608	2595	2588	2597	2616	2639	2668	2697	2699	2694
2757	2841	2924	2954	2942	2933	2945	2967	2963	2929	2894	2823	2738	2672	2632	2596	2574	2553	2516	2468	2424	2381	2349	2356	2397	2453	2522	2596	2665	2729	2779	2804	2811	2802	2767	2726	2698	2674	2649	2624	2602	2583	2569	2562	2571	2589	2611	2635	2656	2673	2697	2746	2787	2799	2785	2755	2728	2700	2668	2630	2590	2550	2514	2486	2468	2448	2418	2385	2351	2313	2276	2239	2208	2195	2194	2202	2218	2240	2261	2283	2308	2326	2341	2358	2379	2397	2407	2415	2424	2430	2440	2463	2494	2529	2569	2605	2616	2625	2646	2689	2735	2765	2789	2817	2840	2858	2898	2934	2920	2853	2784	2747	2716	2675	2632	2600	2590	2588	2577	2557	2540	2537	2546	2561	2583	2608	2621	2629
2733	2802	2862	2901	2947	2970	2937	2897	2882	2873	2857	2795	2721	2663	2628	2592	2562	2531	2489	2442	2399	2363	2345	2358	2401	2460	2534	2610	2681	2748	2802	2839	2864	2861	2819	2770	2736	2704	2676	2658	2641	2610	2582	2564	2561	2570	2595	2625	2650	2671	2695	2741	2778	2782	2751	2710	2686	2661	2633	2603	2567	2527	2488	2453	2416	2384	2354	2324	2293	2261	2231	2208	2192	2185	2187	2190	2194	2202	2216	2241	2273	2297	2321	2344	2364	2384	2410	2436	2454	2466	2481	2504	2530	2560	2591	2619	2630	2642	2664	2699	2739	2768	2791	2821	2863	2892	2897	2887	2863	2815	2761	2727	2697	2660	2622	2591	2572	2557	2539	2516	2494	2474	2462	2467	2486	2510	2538	2567
2714	2769	2811	2858	2935	2979	2909	2825	2801	2814	2808	2764	2704	2660	2629	2598	2558	2516	2470	2422	2377	2348	2338	2358	2404	2468	2543	2619	2692	2761	2816	2866	2906	2907	2862	2813	2777	2741	2710	2695	2678	2637	2597	2570	2556	2553	2580	2614	2642	2666	2691	2728	2760	2755	2712	2664	2640	2616	2590	2565	2536	2495	2455	2413	2366	2325	2298	2274	2248	2224	2202	2196	2193	2193	2194	2196	2184	2178	2187	2214	2247	2279	2312	2342	2363	2387	2427	2469	2495	2512	2533	2554	2577	2603	2628	2646	2657	2670	2691	2722	2758	2782	2801	2832	2887	2929	2902	2855	2817	2783	2740	2711	2684	2654	2619	2587	2561	2535	2509	2483	2456	2423	2394	2390	2403	2421	2461	2505
2750	2811	2863	2883	2895	2890	2822	2751	2733	2751	2759	2749	2727	2697	2661	2623	2577	2526	2467	2405	2350	2325	2323	2352	2407	2478	2559	2638	2706	2761	2807	2861	2908	2929	2918	2898	2852	2800	2759	2740	2717	2666	2612	2575	2552	2541	2564	2596	2623	2644	2663	2692	2713	2701	2654	2605	2581	2559	2533	2506	2475	2435	2395	2357	2318	2285	2263	2246	2232	2220	2213	2221	2231	2237	2240	2235	2198	2165	2160	2185	2223	2266	2313	2356	2394	2434	2478	2522	2555	2583	2609	2632	2656	2681	2695	2705	2714	2725	2744	2779	2818	2845	2868	2889	2914	2926	2891	2841	2799	2766	2730	2707	2686	2659	2627	2597	2571	2546	2516	2482	2448	2409	2374	2364	2371	2384	2420	2461
2792	2862	2932	2925	2845	2777	2721	2672	2660	2684	2704	2729	2753	2736	2688	2643	2591	2533	2465	2384	2319	2300	2307	2344	2409	2487	2573	2656	2717	2752	2784	2839	2892	2931	2966	2979	2921	2846	2799	2780	2754	2692	2623	2577	2547	2528	2547	2576	2600	2616	2629	2648	2658	2640	2589	2539	2517	2500	2474	2443	2410	2372	2333	2301	2276	2254	2241	2232	2230	2232	2237	2260	2283	2294	2299	2289	2224	2154	2135	2159	2197	2252	2313	2367	2422	2476	2520	2562	2601	2640	2674	2702	2729	2754	2756	2757	2767	2777	2795	2835	2877	2906	2937	2950	2935	2915	2879	2831	2788	2758	2727	2710	2695	2672	2642	2612	2589	2568	2535	2493	2454	2412	2374	2358	2359	2365	2392	2423
2842	2880	2923	2897	2795	2704	2651	2609	2598	2626	2658	2693	2725	2714	2669	2622	2569	2511	2442	2358	2294	2282	2296	2341	2413	2494	2580	2662	2713	2735	2761	2815	2869	2916	2967	2990	2936	2863	2817	2792	2761	2700	2631	2581	2544	2519	2530	2553	2570	2580	2589	2597	2598	2575	2526	2476	2455	2439	2415	2384	2353	2319	2286	2261	2245	2234	2232	2234	2244	2258	2274	2305	2333	2344	2343	2324	2242	2157	2126	2146	2180	2233	2295	2348	2404	2461	2506	2550	2594	2637	2676	2712	2748	2778	2789	2798	2802	2805	2817	2852	2886	2916	2947	2963	2946	2922	2880	2829	2787	2761	2740	2723	2707	2683	2655	2628	2601	2578	2549	2508	2470	2429	2390	2362	2355	2355	2366	2383
